X Y Z i j k
20.0000, 3.6101, 11.3082, -0.0000, 0.0349, 0.9994
20.0000, -2.7425, 11.3391, 0.0000, -0.0291, 0.9996
20.0000, 17.1692, 9.8572, -0.0164, 0.1912, 0.9814
20.0000, 9.3722, 10.9234, -0.0001, 0.0974, 0.9952
17.6415, 20.0000, 9.7702, 0.2842, -0.1160, 0.9517
20.0000, 20.0000, 9.3357, 0.0648, 0.1214, 0.9905
20.0000, 17.8143, 9.7445, 0.0020, 0.1756, 0.9845
9.8908, 20.0000, 10.8763, 0.1010, -0.0000, 0.9949
15.6061, 20.0000, 10.1210, 0.1616, -0.0000, 0.9869
-4.8354, 20.0000, 11.2532, -0.0453, -0.0001, 0.9990
2.7073, 20.0000, 11.3397, 0.0286, 0.0000, 0.9996
-14.7420, 20.0000, 10.2571, -0.1537, -0.0000, 0.9881
-9.1956, 20.0000, 10.9411, -0.0961, -0.0001, 0.9954
-20.0000, 17.9044, 9.7220, 0.0894, 0.2600, 0.9615
-20.0000, 20.0000, 9.3406, -0.1192, 0.0631, 0.9909
-18.0302, 20.0000, 9.7021, -0.1677, 0.0079, 0.9858
-20.0000, 9.9027, 10.8750, 0.0000, 0.0995, 0.9950
-20.0000, 14.6953, 10.2661, 0.0000, 0.1563, 0.9877
-20.0000, -2.9991, 11.3261, 0.0000, -0.0297, 0.9996
-20.0000, 3.2124, 11.3225, 0.0000, 0.0353, 0.9994
-20.0000, -14.7754, 10.2522, 0.0000, -0.1541, 0.9881
-20.0000, -9.6321, 10.8973, 0.0001, -0.0990, 0.9951
-17.7432, -20.0000, 9.7516, -0.2753, 0.1063, 0.9555
-20.0000, -20.0000, 9.3327, -0.0659, -0.1213, 0.9904
-20.0000, -18.1864, 9.6714, -0.0128, -0.1657, 0.9861
-8.7994, -20.0000, 10.9762, -0.0948, 0.0001, 0.9955
-14.6777, -20.0000, 10.2689, -0.1560, 0.0000, 0.9878
20.0000, -9.6255, 10.9035, -0.0001, -0.1026, 0.9947
20.0000, -15.2349, 10.1801, -0.0000, -0.1582, 0.9874
20.0000, -17.3441, 9.8248, 0.0000, -0.1722, 0.9851
20.0000, -20.0000, 9.3327, 0.1218, -0.0666, 0.9903
18.0123, -20.0000, 9.7056, 0.1704, -0.0079, 0.9853
9.6320, -20.0000, 10.8974, 0.0996, 0.0001, 0.9950
15.0951, -20.0000, 10.2049, 0.1575, -0.0000, 0.9875
-3.8654, -20.0000, 11.2958, -0.0443, 0.0000, 0.9990
3.4500, -20.0000, 11.3129, 0.0335, 0.0000, 0.9994
-3.1788, -20.0000, 11.7815, -0.0303, -0.0003, 0.9995
8.8456, -20.0000, 11.4400, 0.0933, -0.0002, 0.9956
20.0000, -20.0000, 9.8112, 0.1198, -0.0656, 0.9906
20.0000, -9.9202, 11.3442, 0.0003, -0.0957, 0.9954
20.0000, -0.1773, 11.8209, 0.0003, -0.0004, 1.0000
20.0000, 11.0954, 11.2282, 0.0003, 0.1030, 0.9947
20.0000, 20.0000, 9.8144, 0.0638, 0.1194, 0.9908
12.1614, 20.0000, 11.1109, 0.1109, 0.0003, 0.9938
0.9310, 20.0000, 11.8236, 0.0008, 0.0003, 1.0000
-8.8469, 20.0000, 11.4429, -0.0936, 0.0002, 0.9956
-20.0000, 20.0000, 9.8190, -0.1172, 0.0622, 0.9912
-20.0000, 9.9196, 11.3427, -0.0003, 0.0962, 0.9954
-20.0000, 0.1785, 11.8195, -0.0003, 0.0003, 1.0000
-20.0000, -11.0942, 11.2251, -0.0003, -0.1056, 0.9944
-20.0000, -20.0000, 9.8112, -0.0649, -0.1193, 0.9907
-12.1610, -20.0000, 11.1099, -0.1136, -0.0003, 0.9935
-3.1788, -20.0000, 11.7815, -0.0303, -0.0003, 0.9995
-3.5152, -20.0000, 12.2459, -0.0300, -0.0007, 0.9995
9.0687, -20.0000, 11.9112, 0.0862, -0.0006, 0.9963
20.0000, -20.0000, 10.3150, 0.1176, -0.0646, 0.9910
20.0000, -10.1218, 11.8173, 0.0006, -0.0941, 0.9956
20.0000, 0.2264, 12.2846, 0.0006, -0.0001, 1.0000
20.0000, 11.2735, 11.7037, 0.0006, 0.1012, 0.9949
20.0000, 20.0000, 10.3182, 0.0629, 0.1173, 0.9911
12.3182, 20.0000, 11.5888, 0.1090, 0.0007, 0.9940
1.3125, 20.0000, 12.2872, 0.0012, 0.0006, 1.0000
-9.0700, 20.0000, 11.9141, -0.0872, 0.0006, 0.9962
-20.0000, 20.0000, 10.3227, -0.1151, 0.0613, 0.9915
-20.0000, 10.1212, 11.8159, -0.0006, 0.0946, 0.9955
-20.0000, -0.2251, 12.2831, -0.0006, -0.0001, 1.0000
-20.0000, -11.2723, 11.7006, -0.0006, -0.1038, 0.9946
-20.0000, -20.0000, 10.3150, -0.0639, -0.1171, 0.9911
-12.3178, -20.0000, 11.5877, -0.1116, -0.0007, 0.9937
-3.5152, -20.0000, 12.2459, -0.0300, -0.0007, 0.9995
-3.8517, -20.0000, 12.7102, -0.0298, -0.0010, 0.9996
9.2918, -20.0000, 12.3824, 0.0847, -0.0010, 0.9964
20.0000, -20.0000, 10.8188, 0.1155, -0.0636, 0.9913
20.0000, -10.3234, 12.2904, 0.0010, -0.0925, 0.9957
20.0000, 0.6300, 12.7483, 0.0010, 0.0003, 1.0000
20.0000, 11.4516, 12.1793, 0.0010, 0.0994, 0.9950
20.0000, 20.0000, 10.8220, 0.0619, 0.1151, 0.9914
12.4750, 20.0000, 12.0667, 0.1143, 0.0010, 0.9934
1.6939, 20.0000, 12.7509, 0.0015, 0.0010, 1.0000
-9.2931, 20.0000, 12.3853, -0.0857, 0.0010, 0.9963
-20.0000, 20.0000, 10.8264, -0.1130, 0.0603, 0.9918
-20.0000, 10.3228, 12.2890, -0.0010, 0.0930, 0.9957
-20.0000, -0.6286, 12.7467, -0.0010, -0.0004, 1.0000
-20.0000, -11.4504, 12.1761, -0.0010, -0.1019, 0.9948
-20.0000, -20.0000, 10.8188, -0.0629, -0.1150, 0.9914
-12.4746, -20.0000, 12.0655, -0.1166, -0.0010, 0.9932
-3.8517, -20.0000, 12.7102, -0.0298, -0.0010, 0.9996
-4.1881, -20.0000, 13.1746, -0.0295, -0.0013, 0.9996
7.3865, -20.0000, 13.0205, 0.0563, -0.0012, 0.9984
20.0000, -20.0000, 11.3226, 0.1133, -0.0626, 0.9916
20.0000, -10.5250, 12.7635, 0.0013, -0.0908, 0.9959
20.0000, 1.0336, 13.2120, 0.0013, 0.0006, 1.0000
20.0000, 11.6298, 12.6549, 0.0013, 0.0977, 0.9952
20.0000, 20.0000, 11.3259, 0.0609, 0.1130, 0.9917
12.6318, 20.0000, 12.5446, 0.1122, 0.0014, 0.9937
2.0754, 20.0000, 13.2145, 0.0018, 0.0013, 1.0000
-9.5162, 20.0000, 12.8564, -0.0842, 0.0013, 0.9964
-20.0000, 20.0000, 11.3300, -0.1109, 0.0594, 0.9921
-20.0000, 10.5245, 12.7622, -0.0013, 0.0913, 0.9958
-20.0000, -1.0322, 13.2103, -0.0013, -0.0008, 1.0000
-20.0000, -11.6285, 12.6516, -0.0013, -0.1001, 0.9950
-20.0000, -20.0000, 11.3226, -0.0619, -0.1129, 0.9917
-12.6314, -20.0000, 12.5433, -0.1145, -0.0014, 0.9934
-4.1881, -20.0000, 13.1746, -0.0295, -0.0013, 0.9996
-4.5245, -20.0000, 13.6390, -0.0292, -0.0017, 0.9996
7.6549, -20.0000, 13.4881, 0.0554, -0.0016, 0.9985
20.0000, -20.0000, 11.8263, 0.1112, -0.0616, 0.9919
20.0000, -10.7266, 13.2366, 0.0017, -0.0892, 0.9960
20.0000, 1.4373, 13.6757, 0.0016, 0.0009, 1.0000
20.0000, 11.8079, 13.1304, 0.0017, 0.0959, 0.9954
20.0000, 20.0000, 11.8297, 0.0599, 0.1109, 0.9920
12.7886, 20.0000, 13.0225, 0.1101, 0.0017, 0.9939
2.4569, 20.0000, 13.6781, 0.0021, 0.0016, 1.0000
-9.7393, 20.0000, 13.3276, -0.0827, 0.0017, 0.9966
-20.0000, 20.0000, 11.8337, -0.1088, 0.0584, 0.9923
-20.0000, 8.6637, 13.4143, -0.0017, 0.0718, 0.9974
-20.0000, -1.4358, 13.6739, -0.0016, -0.0011, 1.0000
-20.0000, -11.8067, 13.1271, -0.0017, -0.0983, 0.9952
-20.0000, -20.0000, 11.8263, -0.0609, -0.1107, 0.9920
-12.7882, -20.0000, 13.0211, -0.1123, -0.0017, 0.9937
-4.5245, -20.0000, 13.6390, -0.0292, -0.0017, 0.9996
-4.8609, -20.0000, 14.1033, -0.0290, -0.0020, 0.9996
7.9233, -20.0000, 13.9558, 0.0619, -0.0020, 0.9981
20.0000, -20.0000, 12.3301, 0.1091, -0.0606, 0.9922
20.0000, -8.9091, 13.8815, 0.0020, -0.0710, 0.9975
20.0000, 1.8409, 14.1394, 0.0020, 0.0013, 1.0000
20.0000, 11.9860, 13.6060, 0.0021, 0.0956, 0.9954
20.0000, 20.0000, 12.3336, 0.0590, 0.1087, 0.9923
12.9454, 20.0000, 13.5004, 0.1080, 0.0021, 0.9941
2.8384, 20.0000, 14.1418, 0.0024, 0.0020, 1.0000
-9.9623, 20.0000, 13.7988, -0.0813, 0.0020, 0.9967
-20.0000, 20.0000, 12.3373, -0.1068, 0.0575, 0.9926
-20.0000, 8.9102, 13.8836, -0.0020, 0.0706, 0.9975
-20.0000, -1.8393, 14.1375, -0.0020, -0.0014, 1.0000
-20.0000, -11.9848, 13.6026, -0.0021, -0.0969, 0.9953
-20.0000, -20.0000, 12.3301, -0.0599, -0.1086, 0.9923
-12.9449, -20.0000, 13.4989, -0.1102, -0.0021, 0.9939
-4.8609, -20.0000, 14.1033, -0.0290, -0.0020, 0.9996
-5.1974, -20.0000, 14.5677, -0.0287, -0.0023, 0.9996
8.1916, -20.0000, 14.4234, 0.0609, -0.0024, 0.9981
20.0000, -20.0000, 12.8339, 0.1069, -0.0596, 0.9925
20.0000, -9.1555, 14.3508, 0.0024, -0.0698, 0.9976
20.0000, 2.2446, 14.6031, 0.0023, 0.0016, 1.0000
20.0000, 12.1642, 14.0815, 0.0024, 0.0938, 0.9956
20.0000, 20.0000, 12.8374, 0.0580, 0.1066, 0.9926
13.1022, 20.0000, 13.9783, 0.1059, 0.0024, 0.9944
3.2199, 20.0000, 14.6054, 0.0028, 0.0023, 1.0000
-10.1854, 20.0000, 14.2700, -0.0798, 0.0024, 0.9968
-20.0000, 20.0000, 12.8410, -0.1047, 0.0566, 0.9929
-20.0000, 9.1567, 14.3529, -0.0024, 0.0693, 0.9976
-20.0000, -2.2429, 14.6011, -0.0023, -0.0018, 1.0000
-20.0000, -12.1629, 14.0781, -0.0024, -0.0951, 0.9955
-20.0000, -20.0000, 12.8339, -0.0589, -0.1065, 0.9926
-13.1017, -20.0000, 13.9767, -0.1080, -0.0024, 0.9941
-5.1974, -20.0000, 14.5677, -0.0287, -0.0023, 0.9996
-5.5338, -20.0000, 15.0321, -0.0284, -0.0027, 0.9996
8.4600, -20.0000, 14.8911, 0.0599, -0.0027, 0.9982
20.0000, -20.0000, 13.3377, 0.1048, -0.0586, 0.9928
20.0000, -9.4020, 14.8201, 0.0027, -0.0686, 0.9976
20.0000, 2.6482, 15.0668, 0.0026, 0.0020, 1.0000
20.0000, 12.3423, 14.5571, 0.0028, 0.0920, 0.9958
20.0000, 20.0000, 13.3412, 0.0570, 0.1045, 0.9929
13.2590, 20.0000, 14.4562, 0.1038, 0.0028, 0.9946
3.6013, 20.0000, 15.0691, 0.0031, 0.0026, 1.0000
-8.4579, 20.0000, 14.8875, -0.0600, 0.0027, 0.9982
-20.0000, 20.0000, 13.3447, -0.1026, 0.0556, 0.9932
-20.0000, 9.4031, 14.8222, -0.0027, 0.0681, 0.9977
-20.0000, -2.6465, 15.0648, -0.0026, -0.0021, 1.0000
-20.0000, -12.3410, 14.5535, -0.0028, -0.0932, 0.9956
-20.0000, -20.0000, 13.3377, -0.0579, -0.1044, 0.9928
-13.2585, -20.0000, 14.4545, -0.1059, -0.0028, 0.9944
-5.5338, -20.0000, 15.0321, -0.0284, -0.0027, 0.9996
-5.8702, -20.0000, 15.4964, -0.0282, -0.0030, 0.9996
8.7284, -20.0000, 15.3587, 0.0589, -0.0030, 0.9983
20.0000, -20.0000, 13.8414, 0.1027, -0.0576, 0.9930
20.0000, -9.6485, 15.2894, 0.0030, -0.0673, 0.9977
20.0000, 3.0519, 15.5305, 0.0029, 0.0023, 1.0000
20.0000, 12.5205, 15.0326, 0.0031, 0.0902, 0.9959
20.0000, 20.0000, 13.8451, 0.0560, 0.1024, 0.9932
13.4159, 20.0000, 14.9341, 0.1018, 0.0031, 0.9948
3.9828, 20.0000, 15.5327, 0.0034, 0.0029, 1.0000
-8.7264, 20.0000, 15.3553, -0.0590, 0.0030, 0.9983
-20.0000, 20.0000, 13.8483, -0.1005, 0.0547, 0.9934
-20.0000, 9.6496, 15.2915, -0.0030, 0.0669, 0.9978
-20.0000, -3.0500, 15.5284, -0.0030, -0.0025, 1.0000
-20.0000, -12.5191, 15.0290, -0.0031, -0.0914, 0.9958
-20.0000, -20.0000, 13.8414, -0.0569, -0.1023, 0.9931
-13.4153, -20.0000, 14.9323, -0.1038, -0.0031, 0.9946
-5.8702, -20.0000, 15.4964, -0.0282, -0.0030, 0.9996
-6.2066, -20.0000, 15.9608, -0.0279, -0.0033, 0.9996
8.9967, -20.0000, 15.8264, 0.0579, -0.0034, 0.9983
20.0000, -20.0000, 14.3452, 0.1006, -0.0566, 0.9933
20.0000, -9.8949, 15.7587, 0.0034, -0.0661, 0.9978
20.0000, 3.4555, 15.9942, 0.0033, 0.0027, 1.0000
20.0000, 12.6986, 15.5082, 0.0034, 0.0884, 0.9961
20.0000, 20.0000, 14.3489, 0.0551, 0.1002, 0.9934
13.5727, 20.0000, 15.4120, 0.0997, 0.0034, 0.9950
4.3643, 20.0000, 15.9964, 0.0037, 0.0033, 1.0000
-8.9948, 20.0000, 15.8231, -0.0580, 0.0034, 0.9983
-20.0000, 20.0000, 14.3520, -0.0985, 0.0538, 0.9937
-20.0000, 9.8960, 15.7608, -0.0034, 0.0657, 0.9978
-20.0000, -3.4536, 15.9920, -0.0033, -0.0028, 1.0000
-20.0000, -12.6972, 15.5045, -0.0034, -0.0896, 0.9960
-20.0000, -20.0000, 14.3452, -0.0560, -0.1001, 0.9934
-13.5721, -20.0000, 15.4101, -0.1016, -0.0035, 0.9948
-6.2066, -20.0000, 15.9608, -0.0279, -0.0033, 0.9996
-6.5431, -20.0000, 16.4252, -0.0276, -0.0037, 0.9996
9.2651, -20.0000, 16.2940, 0.0548, -0.0037, 0.9985
20.0000, -20.0000, 14.8490, 0.0985, -0.0556, 0.9936
20.0000, -10.1414, 16.2280, 0.0037, -0.0625, 0.9980
20.0000, 3.8592, 16.4579, 0.0036, 0.0030, 1.0000
20.0000, 12.8767, 15.9837, 0.0038, 0.0866, 0.9962
20.0000, 20.0000, 14.8528, 0.0541, 0.0981, 0.9937
13.7295, 20.0000, 15.8899, 0.0976, 0.0038, 0.9952
4.7458, 20.0000, 16.4600, 0.0040, 0.0036, 1.0000
-9.2633, 20.0000, 16.2908, -0.0551, 0.0037, 0.9985
-20.0000, 20.0000, 14.8557, -0.0964, 0.0528, 0.9939
-20.0000, 10.1425, 16.2301, -0.0037, 0.0625, 0.9980
-20.0000, -3.8572, 16.4556, -0.0036, -0.0031, 1.0000
-20.0000, -12.8753, 15.9800, -0.0038, -0.0878, 0.9961
-20.0000, -20.0000, 14.8490, -0.0550, -0.0980, 0.9937
-13.7288, -20.0000, 15.8879, -0.0995, -0.0038, 0.9950
-6.5431, -20.0000, 16.4252, -0.0276, -0.0037, 0.9996
-6.8795, -20.0000, 16.8896, -0.0274, -0.0040, 0.9996
9.5335, -20.0000, 16.7617, 0.0538, -0.0041, 0.9985
20.0000, -20.0000, 15.3528, 0.0963, -0.0546, 0.9939
20.0000, -8.6336, 16.8129, 0.0041, -0.0452, 0.9990
20.0000, 4.2628, 16.9216, 0.0039, 0.0034, 1.0000
20.0000, 13.0549, 16.4593, 0.0041, 0.0848, 0.9964
20.0000, 20.0000, 15.3566, 0.0532, 0.0960, 0.9940
13.8863, 20.0000, 16.3678, 0.0955, 0.0041, 0.9954
5.1272, 20.0000, 16.9237, 0.0044, 0.0039, 1.0000
-9.5317, 20.0000, 16.7586, -0.0542, 0.0041, 0.9985
-20.0000, 20.0000, 15.3593, -0.0943, 0.0519, 0.9942
-20.0000, 8.6334, 16.8125, -0.0041, 0.0449, 0.9990
-20.0000, -4.2608, 16.9192, -0.0039, -0.0035, 1.0000
-20.0000, -13.0535, 16.4555, -0.0041, -0.0859, 0.9963
-20.0000, -20.0000, 15.3528, -0.0540, -0.0959, 0.9939
-6.8795, -20.0000, 16.8896, -0.0274, -0.0040, 0.9996
-7.2159, -20.0000, 17.3539, -0.0271, -0.0044, 0.9996
9.8019, -20.0000, 17.2293, 0.0528, -0.0044, 0.9986
20.0000, -20.0000, 15.8565, 0.0942, -0.0536, 0.9941
20.0000, -8.9251, 17.2792, 0.0044, -0.0445, 0.9990
20.0000, 4.6665, 17.3853, 0.0043, 0.0037, 1.0000
20.0000, 13.2330, 16.9349, 0.0045, 0.0831, 0.9965
20.0000, 20.0000, 15.8604, 0.0522, 0.0939, 0.9942
14.0431, 20.0000, 16.8457, 0.0935, 0.0045, 0.9956
5.5087, 20.0000, 17.3873, 0.0047, 0.0043, 1.0000
-9.8002, 20.0000, 17.2264, -0.0532, 0.0044, 0.9986
-20.0000, 20.0000, 15.8630, -0.0923, 0.0510, 0.9944
-20.0000, 8.9249, 17.2789, -0.0044, 0.0442, 0.9990
-20.0000, -4.6643, 17.3828, -0.0043, -0.0038, 1.0000
-20.0000, -13.2316, 16.9310, -0.0045, -0.0841, 0.9964
-20.0000, -20.0000, 15.8565, -0.0530, -0.0938, 0.9942
-7.2159, -20.0000, 17.3539, -0.0271, -0.0044, 0.9996
-7.5523, -20.0000, 17.8183, -0.0268, -0.0047, 0.9996
10.0702, -20.0000, 17.6970, 0.0519, -0.0048, 0.9986
20.0000, -20.0000, 16.3603, 0.0921, -0.0526, 0.9944
20.0000, -9.2165, 17.7455, 0.0047, -0.0437, 0.9990
20.0000, 5.0701, 17.8490, 0.0046, 0.0040, 1.0000
20.0000, 13.4111, 17.4104, 0.0048, 0.0813, 0.9967
20.0000, 20.0000, 16.3643, 0.0512, 0.0918, 0.9945
14.1999, 20.0000, 17.3236, 0.0914, 0.0048, 0.9958
5.8902, 20.0000, 17.8510, 0.0050, 0.0046, 1.0000
-10.0686, 20.0000, 17.6942, -0.0522, 0.0047, 0.9986
-20.0000, 20.0000, 16.3666, -0.0902, 0.0500, 0.9947
-20.0000, 9.2164, 17.7453, -0.0047, 0.0435, 0.9990
-20.0000, -5.0679, 17.8464, -0.0046, -0.0042, 1.0000
-20.0000, -13.4097, 17.4065, -0.0048, -0.0823, 0.9966
-20.0000, -20.0000, 16.3603, -0.0520, -0.0917, 0.9944
-7.5523, -20.0000, 17.8183, -0.0268, -0.0047, 0.9996
-7.8888, -20.0000, 18.2827, -0.0266, -0.0050, 0.9996
8.7152, -20.0000, 18.2498, 0.0351, -0.0051, 0.9994
20.0000, -20.0000, 16.8641, 0.0900, -0.0516, 0.9946
20.0000, -9.5080, 18.2119, 0.0051, -0.0430, 0.9991
20.0000, 5.4738, 18.3127, 0.0049, 0.0044, 1.0000
20.0000, 13.5893, 17.8860, 0.0051, 0.0795, 0.9968
20.0000, 20.0000, 16.8681, 0.0503, 0.0897, 0.9947
14.3567, 20.0000, 17.8015, 0.0893, 0.0052, 0.9960
6.2717, 20.0000, 18.3146, 0.0053, 0.0049, 1.0000
-8.7180, 20.0000, 18.2539, -0.0351, 0.0050, 0.9994
-20.0000, 20.0000, 16.8703, -0.0882, 0.0491, 0.9949
-20.0000, 9.5079, 18.2117, -0.0051, 0.0428, 0.9991
-20.0000, -5.4715, 18.3100, -0.0049, -0.0045, 1.0000
-20.0000, -13.5878, 17.8820, -0.0052, -0.0805, 0.9967
-20.0000, -20.0000, 16.8641, -0.0510, -0.0897, 0.9947
-7.8888, -20.0000, 18.2827, -0.0266, -0.0050, 0.9996
-8.2252, -20.0000, 18.7470, -0.0263, -0.0054, 0.9996
9.0287, -20.0000, 18.7151, 0.0346, -0.0054, 0.9994
20.0000, -20.0000, 17.3679, 0.0879, -0.0506, 0.9948
20.0000, -9.7994, 18.6782, 0.0054, -0.0423, 0.9991
20.0000, 5.8774, 18.7764, 0.0053, 0.0047, 1.0000
20.0000, 13.7674, 18.3615, 0.0055, 0.0777, 0.9970
20.0000, 20.0000, 17.3720, 0.0493, 0.0876, 0.9949
14.5135, 20.0000, 18.2794, 0.0872, 0.0055, 0.9962
6.6531, 20.0000, 18.7783, 0.0056, 0.0053, 1.0000
-9.0314, 20.0000, 18.7191, -0.0346, 0.0054, 0.9994
-20.0000, 20.0000, 17.3740, -0.0861, 0.0482, 0.9951
-20.0000, 9.7993, 18.6781, -0.0054, 0.0420, 0.9991
-20.0000, -5.8750, 18.7736, -0.0053, -0.0049, 1.0000
-20.0000, -13.7659, 18.3575, -0.0055, -0.0787, 0.9969
-20.0000, -20.0000, 17.3679, -0.0501, -0.0876, 0.9949
-8.2252, -20.0000, 18.7470, -0.0263, -0.0054, 0.9996
-8.5616, -20.0000, 19.2114, -0.0260, -0.0057, 0.9996
9.3422, -20.0000, 19.1803, 0.0341, -0.0057, 0.9994
20.0000, -20.0000, 17.8716, 0.0858, -0.0496, 0.9951
20.0000, -10.0908, 19.1446, 0.0057, -0.0415, 0.9991
20.0000, 6.2811, 19.2401, 0.0056, 0.0051, 1.0000
20.0000, 13.9456, 18.8371, 0.0058, 0.0759, 0.9971
20.0000, 20.0000, 17.8758, 0.0484, 0.0855, 0.9952
14.6704, 20.0000, 18.7573, 0.0852, 0.0058, 0.9963
7.0346, 20.0000, 19.2419, 0.0060, 0.0056, 1.0000
-9.3449, 20.0000, 19.1843, -0.0341, 0.0057, 0.9994
-20.0000, 20.0000, 17.8776, -0.0841, 0.0473, 0.9953
-20.0000, 10.0908, 19.1445, -0.0057, 0.0413, 0.9991
-20.0000, -6.2786, 19.2372, -0.0056, -0.0052, 1.0000
-20.0000, -13.9440, 18.8330, -0.0058, -0.0769, 0.9970
-20.0000, -20.0000, 17.8716, -0.0491, -0.0855, 0.9951
-8.5616, -20.0000, 19.2114, -0.0260, -0.0057, 0.9996
-8.8980, -20.0000, 19.6758, -0.0258, -0.0060, 0.9996
9.6556, -20.0000, 19.6456, 0.0336, -0.0061, 0.9994
20.0000, -20.0000, 18.3754, 0.0837, -0.0486, 0.9953
20.0000, -10.3823, 19.6109, 0.0061, -0.0408, 0.9991
20.0000, 6.6847, 19.7038, 0.0059, 0.0054, 1.0000
20.0000, 14.1237, 19.3126, 0.0062, 0.0741, 0.9972
20.0000, 20.0000, 18.3796, 0.0474, 0.0835, 0.9954
14.8272, 20.0000, 19.2352, 0.0831, 0.0062, 0.9965
7.4161, 20.0000, 19.7055, 0.0063, 0.0059, 1.0000
-9.6583, 20.0000, 19.6495, -0.0336, 0.0060, 0.9994
-20.0000, 20.0000, 18.3813, -0.0821, 0.0463, 0.9955
-20.0000, 10.3823, 19.6109, -0.0061, 0.0406, 0.9992
-20.0000, -6.6822, 19.7009, -0.0059, -0.0056, 1.0000
-20.0000, -14.1222, 19.3085, -0.0062, -0.0751, 0.9972
-20.0000, -20.0000, 18.3754, -0.0481, -0.0834, 0.9954
-8.8980, -20.0000, 19.6758, -0.0258, -0.0060, 0.9996
-9.2344, -20.0000, 20.1402, -0.0255, -0.0064, 0.9997
9.9691, -20.0000, 20.1109, 0.0331, -0.0064, 0.9994
20.0000, -20.0000, 18.8792, 0.0817, -0.0476, 0.9955
20.0000, -10.6737, 20.0772, 0.0064, -0.0401, 0.9992
20.0000, 7.0884, 20.1675, 0.0063, 0.0058, 1.0000
20.0000, 14.3018, 19.7882, 0.0065, 0.0724, 0.9974
20.0000, 20.0000, 18.8835, 0.0465, 0.0814, 0.9956
7.7976, 20.0000, 20.1692, 0.0066, 0.0063, 1.0000
-9.9717, 20.0000, 20.1148, -0.0331, 0.0064, 0.9994
-20.0000, 20.0000, 18.8849, -0.0800, 0.0454, 0.9958
-20.0000, 10.6738, 20.0773, -0.0064, 0.0399, 0.9992
-20.0000, -7.0857, 20.1645, -0.0063, -0.0059, 1.0000
-20.0000, -14.3003, 19.7840, -0.0065, -0.0733, 0.9973
-20.0000, -20.0000, 18.8792, -0.0472, -0.0813, 0.9956
-9.2344, -20.0000, 20.1402, -0.0255, -0.0064, 0.9997
-9.5709, -20.0000, 20.6045, -0.0252, -0.0067, 0.9997
10.2826, -20.0000, 20.5762, 0.0326, -0.0067, 0.9994
20.0000, -20.0000, 19.3830, 0.0796, -0.0467, 0.9957
20.0000, -10.9652, 20.5436, 0.0068, -0.0394, 0.9992
20.0000, 7.4920, 20.6312, 0.0066, 0.0061, 1.0000
20.0000, 14.4800, 20.2638, 0.0068, 0.0706, 0.9975
20.0000, 20.0000, 19.3873, 0.0455, 0.0793, 0.9958
8.1790, 20.0000, 20.6328, 0.0069, 0.0066, 1.0000
-10.2851, 20.0000, 20.5800, -0.0326, 0.0067, 0.9994
-20.0000, 20.0000, 19.3886, -0.0780, 0.0445, 0.9960
-20.0000, 10.9653, 20.5437, -0.0068, 0.0391, 0.9992
-20.0000, -7.4893, 20.6281, -0.0066, -0.0062, 1.0000
-20.0000, -14.4784, 20.2595, -0.0069, -0.0715, 0.9974
-20.0000, -20.0000, 19.3830, -0.0462, -0.0793, 0.9958
-9.5709, -20.0000, 20.6045, -0.0252, -0.0067, 0.9997
-9.9073, -20.0000, 21.0689, -0.0250, -0.0070, 0.9997
10.5960, -20.0000, 21.0415, 0.0321, -0.0071, 0.9995
20.0000, -20.0000, 19.8867, 0.0775, -0.0457, 0.9959
20.0000, -11.2566, 21.0099, 0.0071, -0.0386, 0.9992
20.0000, 7.8957, 21.0949, 0.0069, 0.0042, 1.0000
20.0000, 14.6581, 20.7393, 0.0072, 0.0688, 0.9976
20.0000, 20.0000, 19.8912, 0.0446, 0.0772, 0.9960
8.5605, 20.0000, 21.0965, 0.0073, 0.0069, 0.9999
-10.5986, 20.0000, 21.0452, -0.0321, 0.0070, 0.9995
-20.0000, 20.0000, 19.8923, -0.0760, 0.0436, 0.9962
-20.0000, 9.9068, 21.0682, -0.0070, 0.0249, 0.9997
-20.0000, -7.8929, 21.0917, -0.0069, -0.0044, 1.0000
-20.0000, -14.6565, 20.7350, -0.0072, -0.0697, 0.9975
-20.0000, -20.0000, 19.8867, -0.0452, -0.0772, 0.9960
-9.9073, -20.0000, 21.0689, -0.0250, -0.0070, 0.9997
-10.2437, -20.0000, 21.5333, -0.0274, -0.0074, 0.9996
10.9095, -20.0000, 21.5068, 0.0316, -0.0074, 0.9995
20.0000, -20.0000, 20.3905, 0.0754, -0.0447, 0.9961
20.0000, -10.2423, 21.5313, 0.0074, -0.0264, 0.9996
20.0000, 8.2993, 21.5586, 0.0072, 0.0046, 1.0000
20.0000, 14.8363, 21.2149, 0.0075, 0.0671, 0.9977
20.0000, 20.0000, 20.3950, 0.0436, 0.0752, 0.9962
8.9420, 20.0000, 21.5601, 0.0121, 0.0073, 0.9999
-10.9120, 20.0000, 21.5104, -0.0316, 0.0074, 0.9995
-20.0000, 20.0000, 20.3959, -0.0739, 0.0427, 0.9963
-20.0000, 10.2433, 21.5327, -0.0074, 0.0259, 0.9996
-20.0000, -8.2965, 21.5553, -0.0072, -0.0049, 1.0000
-20.0000, -14.8346, 21.2105, -0.0075, -0.0679, 0.9977
-20.0000, -20.0000, 20.3905, -0.0442, -0.0751, 0.9962
-10.2437, -20.0000, 21.5333, -0.0274, -0.0074, 0.9996
-10.5801, -20.0000, 21.9976, -0.0271, -0.0077, 0.9996
11.2230, -20.0000, 21.9720, 0.0323, -0.0078, 0.9994
20.0000, -20.0000, 20.8943, 0.0733, -0.0437, 0.9963
20.0000, -10.5788, 21.9957, 0.0077, -0.0260, 0.9996
20.0000, 8.7030, 22.0223, 0.0076, 0.0051, 1.0000
20.0000, 20.0000, 20.8988, 0.0427, 0.0731, 0.9964
9.3235, 20.0000, 22.0238, 0.0123, 0.0076, 0.9999
-11.2254, 20.0000, 21.9757, -0.0333, 0.0077, 0.9994
-20.0000, 20.0000, 20.8996, -0.0719, 0.0418, 0.9965
-20.0000, 10.5798, 21.9971, -0.0077, 0.0256, 0.9996
-20.0000, -8.7000, 22.0189, -0.0076, -0.0053, 1.0000
-20.0000, -20.0000, 20.8943, -0.0433, -0.0731, 0.9964
-10.5801, -20.0000, 21.9976, -0.0271, -0.0077, 0.9996
-10.9166, -20.0000, 22.4620, -0.0267, -0.0080, 0.9996
11.5364, -20.0000, 22.4373, 0.0318, -0.0081, 0.9995
20.0000, -20.0000, 21.3981, 0.0713, -0.0427, 0.9965
20.0000, -10.9152, 22.4602, 0.0080, -0.0257, 0.9996
20.0000, 9.1066, 22.4860, 0.0079, 0.0055, 1.0000
20.0000, 20.0000, 21.4027, 0.0417, 0.0710, 0.9966
9.7050, 20.0000, 22.4874, 0.0125, 0.0079, 0.9999
-11.5388, 20.0000, 22.4409, -0.0328, 0.0080, 0.9994
-20.0000, 20.0000, 21.4033, -0.0699, 0.0409, 0.9967
-20.0000, 10.9163, 22.4616, -0.0080, 0.0253, 0.9996
-20.0000, -9.1036, 22.4825, -0.0079, -0.0057, 1.0000
-20.0000, -20.0000, 21.3981, -0.0423, -0.0710, 0.9966
-10.9166, -20.0000, 22.4620, -0.0267, -0.0080, 0.9996
-11.2530, -20.0000, 22.9264, -0.0263, -0.0084, 0.9996
10.6809, -20.0000, 22.9412, 0.0191, -0.0084, 0.9998
20.0000, -20.0000, 21.9018, 0.0692, -0.0418, 0.9967
20.0000, -11.2517, 22.9246, 0.0084, -0.0254, 0.9996
20.0000, 9.5103, 22.9497, 0.0082, 0.0081, 0.9999
20.0000, 20.0000, 21.9065, 0.0408, 0.0690, 0.9968
10.0864, 20.0000, 22.9511, 0.0126, 0.0083, 0.9999
-11.8523, 20.0000, 22.9061, -0.0322, 0.0084, 0.9994
-20.0000, 20.0000, 21.9069, -0.0679, 0.0400, 0.9969
-20.0000, 11.2527, 22.9260, -0.0084, 0.0250, 0.9997
-20.0000, -9.5072, 22.9461, -0.0082, -0.0061, 0.9999
-20.0000, -20.0000, 21.9018, -0.0414, -0.0690, 0.9968
-11.2530, -20.0000, 22.9264, -0.0263, -0.0084, 0.9996
-11.5894, -20.0000, 23.3907, -0.0260, -0.0087, 0.9996
11.0394, -20.0000, 23.4050, 0.0190, -0.0087, 0.9998
20.0000, -20.0000, 22.4056, 0.0672, -0.0408, 0.9969
20.0000, -11.5882, 23.3891, 0.0087, -0.0251, 0.9996
20.0000, 9.9139, 23.4134, 0.0086, 0.0085, 0.9999
20.0000, 20.0000, 22.4104, 0.0399, 0.0669, 0.9970
10.4679, 20.0000, 23.4147, 0.0143, 0.0086, 0.9999
-12.1657, 20.0000, 23.3713, -0.0316, 0.0087, 0.9995
-20.0000, 20.0000, 22.4106, -0.0659, 0.0390, 0.9971
-20.0000, 11.5892, 23.3905, -0.0087, 0.0247, 0.9997
-20.0000, -9.9107, 23.4097, -0.0086, -0.0089, 0.9999
-20.0000, -20.0000, 22.4056, -0.0404, -0.0669, 0.9969
-11.5894, -20.0000, 23.3907, -0.0260, -0.0087, 0.9996
-11.9258, -20.0000, 23.8551, -0.0256, -0.0090, 0.9996
11.3978, -20.0000, 23.8688, 0.0210, -0.0090, 0.9997
20.0000, -20.0000, 22.9094, 0.0651, -0.0398, 0.9971
20.0000, -11.9247, 23.8535, 0.0090, -0.0248, 0.9997
20.0000, 10.3176, 23.8771, 0.0089, 0.0088, 0.9999
20.0000, 20.0000, 22.9142, 0.0389, 0.0649, 0.9971
10.8494, 20.0000, 23.8784, 0.0145, 0.0089, 0.9999
-12.4791, 20.0000, 23.8366, -0.0310, 0.0090, 0.9995
-20.0000, 20.0000, 22.9142, -0.0639, 0.0381, 0.9972
-20.0000, 11.9257, 23.8549, -0.0090, 0.0244, 0.9997
-20.0000, -10.3143, 23.8734, -0.0089, -0.0093, 0.9999
-20.0000, -20.0000, 22.9094, -0.0394, -0.0649, 0.9971
-11.9258, -20.0000, 23.8551, -0.0256, -0.0090, 0.9996
-12.2623, -20.0000, 24.3195, -0.0252, -0.0094, 0.9996
11.7562, -20.0000, 24.3326, 0.0208, -0.0094, 0.9997
20.0000, -20.0000, 23.4132, 0.0631, -0.0389, 0.9973
20.0000, -12.2611, 24.3179, 0.0094, -0.0274, 0.9996
20.0000, 10.7212, 24.3408, 0.0092, 0.0091, 0.9999
20.0000, 20.0000, 23.4180, 0.0380, 0.0628, 0.9973
11.2309, 20.0000, 24.3420, 0.0146, 0.0093, 0.9999
-12.7925, 20.0000, 24.3018, -0.0304, 0.0094, 0.9995
-20.0000, 20.0000, 23.4179, -0.0619, 0.0372, 0.9974
-20.0000, 12.2622, 24.3194, -0.0094, 0.0263, 0.9996
-20.0000, -10.7179, 24.3370, -0.0093, -0.0096, 0.9999
-20.0000, -20.0000, 23.4132, -0.0385, -0.0628, 0.9973
-12.2623, -20.0000, 24.3195, -0.0252, -0.0094, 0.9996
-12.5987, -20.0000, 24.7839, -0.0249, -0.0097, 0.9996
12.1146, -20.0000, 24.7964, 0.0207, -0.0097, 0.9997
20.0000, -20.0000, 23.9169, 0.0610, -0.0379, 0.9974
20.0000, -12.5976, 24.7824, 0.0097, -0.0270, 0.9996
20.0000, 11.1248, 24.8045, 0.0096, 0.0095, 0.9999
20.0000, 20.0000, 23.9219, 0.0371, 0.0608, 0.9975
11.6123, 20.0000, 24.8056, 0.0147, 0.0096, 0.9998
-12.1139, 20.0000, 24.7955, -0.0220, 0.0096, 0.9997
-20.0000, 20.0000, 23.9216, -0.0599, 0.0363, 0.9975
-20.0000, 12.5987, 24.7839, -0.0097, 0.0259, 0.9996
-20.0000, -11.1215, 24.8006, -0.0096, -0.0099, 0.9999
-20.0000, -20.0000, 23.9169, -0.0375, -0.0608, 0.9974
-12.5987, -20.0000, 24.7839, -0.0249, -0.0097, 0.9996
-12.9351, -20.0000, 25.2482, -0.0245, -0.0100, 0.9996
12.4731, -20.0000, 25.2602, 0.0205, -0.0100, 0.9997
20.0000, -20.0000, 24.4207, 0.0102, -0.0855, 0.9963
20.0000, -12.9341, 25.2468, 0.0100, -0.0265, 0.9996
20.0000, 11.5285, 25.2682, 0.0099, 0.0148, 0.9998
20.0000, 20.0000, 24.4257, 0.0845, 0.0102, 0.9964
11.9938, 20.0000, 25.2693, 0.0148, 0.0099, 0.9998
-12.4725, 20.0000, 25.2594, -0.0218, 0.0100, 0.9997
-20.0000, 20.0000, 24.4252, -0.0103, 0.0835, 0.9965
-20.0000, 12.9352, 25.2483, -0.0100, 0.0255, 0.9996
-20.0000, -11.5250, 25.2642, -0.0099, -0.0129, 0.9999
-20.0000, -20.0000, 24.4207, -0.0850, -0.0103, 0.9963
-12.9351, -20.0000, 25.2482, -0.0245, -0.0100, 0.9996
-13.2715, -20.0000, 25.7126, -0.0241, -0.0104, 0.9997
12.8315, -20.0000, 25.7240, 0.0203, -0.0104, 0.9997
20.0000, -20.0000, 24.9245, 0.0106, -0.0822, 0.9966
20.0000, -13.2705, 25.7112, 0.0104, -0.0261, 0.9996
20.0000, 11.9321, 25.7319, 0.0103, 0.0149, 0.9998
20.0000, 20.0000, 24.9296, 0.0812, 0.0105, 0.9966
12.3753, 20.0000, 25.7329, 0.0202, 0.0103, 0.9997
-12.8310, 20.0000, 25.7233, -0.0216, 0.0103, 0.9997
-20.0000, 20.0000, 24.9289, -0.0106, 0.0802, 0.9967
-20.0000, 13.2717, 25.7128, -0.0104, 0.0251, 0.9996
-20.0000, -11.9286, 25.7278, -0.0103, -0.0131, 0.9999
-20.0000, -20.0000, 24.9245, -0.0817, -0.0106, 0.9966
-13.2715, -20.0000, 25.7126, -0.0241, -0.0104, 0.9997
-13.6080, -20.0000, 26.1770, -0.0238, -0.0107, 0.9997
13.1899, -20.0000, 26.1878, 0.0209, -0.0107, 0.9997
20.0000, -20.0000, 25.4283, 0.0109, -0.0789, 0.9968
20.0000, -13.6070, 26.1757, 0.0107, -0.0256, 0.9996
20.0000, 12.3358, 26.1956, 0.0106, 0.0150, 0.9998
20.0000, 20.0000, 25.4334, 0.0779, 0.0109, 0.9969
12.7568, 20.0000, 26.1966, 0.0200, 0.0106, 0.9997
-13.1895, 20.0000, 26.1873, -0.0183, 0.0106, 0.9998
-20.0000, 20.0000, 25.4325, -0.0109, 0.0770, 0.9970
-20.0000, 13.6082, 26.1772, -0.0107, 0.0247, 0.9996
-20.0000, -12.3322, 26.1914, -0.0106, -0.0133, 0.9999
-20.0000, -20.0000, 25.4283, -0.0784, -0.0109, 0.9969
-13.6080, -20.0000, 26.1770, -0.0238, -0.0107, 0.9997
-13.9444, -20.0000, 26.6413, -0.0159, -0.0110, 0.9998
13.5483, -20.0000, 26.6516, 0.0207, -0.0110, 0.9997
20.0000, -20.0000, 25.9320, 0.0112, -0.0756, 0.9971
20.0000, -13.9435, 26.6401, 0.0110, -0.0156, 0.9998
20.0000, 12.7394, 26.6593, 0.0109, 0.0151, 0.9998
20.0000, 20.0000, 25.9372, 0.0747, 0.0112, 0.9971
13.1382, 20.0000, 26.6602, 0.0199, 0.0109, 0.9997
-13.5481, 20.0000, 26.6512, -0.0182, 0.0109, 0.9998
-20.0000, 20.0000, 25.9362, -0.0112, 0.0738, 0.9972
-20.0000, 13.9446, 26.6417, -0.0110, 0.0173, 0.9998
-20.0000, -12.7357, 26.6550, -0.0109, -0.0135, 0.9998
-20.0000, -20.0000, 25.9320, -0.0752, -0.0113, 0.9971
-13.9444, -20.0000, 26.6413, -0.0159, -0.0110, 0.9998
-14.2808, -20.0000, 27.1057, -0.0160, -0.0113, 0.9998
13.9068, -20.0000, 27.1154, 0.0205, -0.0114, 0.9997
20.0000, -20.0000, 26.4358, 0.0116, -0.0723, 0.9973
20.0000, -14.2800, 27.1046, 0.0113, -0.0157, 0.9998
20.0000, 13.1431, 27.1230, 0.0112, 0.0129, 0.9999
20.0000, 20.0000, 26.4411, 0.0714, 0.0115, 0.9974
13.5197, 20.0000, 27.1239, 0.0197, 0.0113, 0.9997
-13.9066, 20.0000, 27.1151, -0.0181, 0.0113, 0.9998
-20.0000, 20.0000, 26.4399, -0.0116, 0.0706, 0.9974
-20.0000, 14.2811, 27.1062, -0.0113, 0.0173, 0.9998
-20.0000, -13.1393, 27.1186, -0.0113, -0.0129, 0.9999
-20.0000, -20.0000, 26.4358, -0.0719, -0.0116, 0.9973
-14.2808, -20.0000, 27.1057, -0.0160, -0.0113, 0.9998
-14.6172, -20.0000, 27.5701, -0.0161, -0.0117, 0.9998
14.2652, -20.0000, 27.5792, 0.0203, -0.0117, 0.9997
20.0000, -20.0000, 26.9396, 0.0119, -0.0690, 0.9975
20.0000, -14.6164, 27.5690, 0.0117, -0.0158, 0.9998
20.0000, 13.5467, 27.5867, 0.0116, 0.0131, 0.9998
20.0000, 20.0000, 26.9449, 0.0681, 0.0119, 0.9976
13.9012, 20.0000, 27.5875, 0.0196, 0.0116, 0.9997
-14.2651, 20.0000, 27.5791, -0.0181, 0.0116, 0.9998
-20.0000, 20.0000, 26.9435, -0.0119, 0.0674, 0.9977
-20.0000, 14.6176, 27.5706, -0.0117, 0.0173, 0.9998
-20.0000, -13.5429, 27.5822, -0.0116, -0.0131, 0.9998
-20.0000, -20.0000, 26.9396, -0.0686, -0.0119, 0.9976
-14.6172, -20.0000, 27.5701, -0.0161, -0.0117, 0.9998
-14.9536, -20.0000, 28.0344, -0.0161, -0.0120, 0.9998
14.6236, -20.0000, 28.0430, 0.0201, -0.0121, 0.9997
20.0000, -20.0000, 27.4434, 0.0122, -0.0657, 0.9978
20.0000, -14.2786, 28.0462, 0.0119, -0.0085, 0.9999
20.0000, 13.9504, 28.0504, 0.0119, 0.0134, 0.9998
20.0000, 20.0000, 27.4488, 0.0649, 0.0122, 0.9978
14.2827, 20.0000, 28.0512, 0.0108, 0.0119, 0.9999
-14.6236, 20.0000, 28.0430, -0.0180, 0.0119, 0.9998
-20.0000, 20.0000, 27.4472, -0.0122, 0.0642, 0.9979
-20.0000, 14.2794, 28.0472, -0.0119, 0.0102, 0.9999
-20.0000, -13.9464, 28.0458, -0.0119, -0.0134, 0.9998
-20.0000, -20.0000, 27.4434, -0.0653, -0.0122, 0.9978
-14.9536, -20.0000, 28.0344, -0.0161, -0.0120, 0.9998
-14.6597, -20.0000, 28.5094, -0.0093, -0.0123, 0.9999
14.9820, -20.0000, 28.5068, 0.0199, -0.0124, 0.9997
20.0000, -20.0000, 27.9471, 0.0126, -0.0624, 0.9980
20.0000, -14.6600, 28.5098, 0.0123, -0.0090, 0.9999
20.0000, 14.3540, 28.5141, 0.0123, 0.0136, 0.9998
20.0000, 20.0000, 27.9526, 0.0617, 0.0125, 0.9980
14.6642, 20.0000, 28.5148, 0.0112, 0.0122, 0.9999
-14.9822, 20.0000, 28.5069, -0.0180, 0.0123, 0.9998
-20.0000, 20.0000, 27.9509, -0.0126, 0.0610, 0.9981
-20.0000, 14.6609, 28.5109, -0.0123, 0.0107, 0.9999
-20.0000, -14.3500, 28.5095, -0.0123, -0.0136, 0.9998
-20.0000, -20.0000, 27.9471, -0.0621, -0.0126, 0.9980
-14.6597, -20.0000, 28.5094, -0.0093, -0.0123, 0.9999
-15.0412, -20.0000, 28.9731, -0.0098, -0.0126, 0.9999
15.3405, -20.0000, 28.9706, 0.0115, -0.0127, 0.9999
20.0000, -20.0000, 28.4509, 0.0129, -0.0591, 0.9982
20.0000, -15.0415, 28.9734, 0.0126, -0.0096, 0.9999
20.0000, 14.7577, 28.9778, 0.0126, 0.0139, 0.9998
20.0000, 20.0000, 28.4564, 0.0584, 0.0128, 0.9982
15.0456, 20.0000, 28.9785, 0.0116, 0.0126, 0.9999
-15.3407, 20.0000, 28.9708, -0.0124, 0.0126, 0.9998
-20.0000, 20.0000, 28.4545, -0.0129, 0.0578, 0.9982
-20.0000, 15.0424, 28.9745, -0.0126, 0.0111, 0.9999
-20.0000, -14.7536, 28.9731, -0.0126, -0.0139, 0.9998
-20.0000, -20.0000, 28.4509, -0.0588, -0.0129, 0.9982
-15.0412, -20.0000, 28.9731, -0.0098, -0.0126, 0.9999
-15.4226, -20.0000, 29.4367, -0.0104, -0.0130, 0.9999
15.6989, -20.0000, 29.4344, 0.0120, -0.0130, 0.9998
20.0000, -20.0000, 28.9547, 0.0570, -0.0133, 0.9983
20.0000, -15.4229, 29.4370, 0.0130, -0.0102, 0.9999
20.0000, 15.1613, 29.4415, 0.0129, 0.0054, 0.9999
20.0000, 20.0000, 28.9603, 0.0132, 0.0569, 0.9983
15.4271, 20.0000, 29.4421, 0.0120, 0.0129, 0.9998
-15.6992, 20.0000, 29.4348, -0.0128, 0.0129, 0.9998
-20.0000, 20.0000, 28.9582, -0.0560, 0.0131, 0.9983
-20.0000, 15.4239, 29.4382, -0.0130, 0.0116, 0.9998
-20.0000, -15.1572, 29.4367, -0.0129, -0.0063, 0.9999
-20.0000, -20.0000, 28.9547, -0.0132, -0.0568, 0.9983
-15.4226, -20.0000, 29.4367, -0.0104, -0.0130, 0.9999
-15.8041, -20.0000, 29.9003, -0.0109, -0.0133, 0.9999
16.0573, -20.0000, 29.8982, 0.0124, -0.0134, 0.9998
20.0000, -20.0000, 29.4585, 0.0536, -0.0136, 0.9985
20.0000, -15.8043, 29.9006, 0.0133, -0.0108, 0.9999
20.0000, 15.5650, 29.9052, 0.0132, 0.0064, 0.9999
20.0000, 20.0000, 29.4641, 0.0135, 0.0536, 0.9985
15.8086, 20.0000, 29.9058, 0.0124, 0.0133, 0.9998
-16.0577, 20.0000, 29.8987, -0.0131, 0.0133, 0.9998
-20.0000, 20.0000, 29.4618, -0.0527, 0.0135, 0.9985
-20.0000, 15.8053, 29.9018, -0.0133, 0.0120, 0.9998
-20.0000, -15.5607, 29.9003, -0.0133, -0.0072, 0.9999
-20.0000, -20.0000, 29.4585, -0.0135, -0.0534, 0.9985
-15.8041, -20.0000, 29.9003, -0.0109, -0.0133, 0.9999
-16.1855, -20.0000, 30.3639, -0.0122, -0.0136, 0.9998
16.4157, -20.0000, 30.3620, 0.0128, -0.0137, 0.9998
20.0000, -20.0000, 29.9622, 0.0503, -0.0139, 0.9986
20.0000, -16.1857, 30.3642, 0.0136, -0.0107, 0.9998
20.0000, 15.9686, 30.3689, 0.0136, 0.0073, 0.9999
20.0000, 20.0000, 29.9680, 0.0138, 0.0502, 0.9986
16.1901, 20.0000, 30.3694, 0.0097, 0.0136, 0.9999
-16.4163, 20.0000, 30.3626, -0.0135, 0.0136, 0.9998
-20.0000, 20.0000, 29.9655, -0.0494, 0.0138, 0.9987
-20.0000, 16.1868, 30.3655, -0.0136, 0.0110, 0.9998
-20.0000, -15.9643, 30.3639, -0.0136, -0.0081, 0.9999
-20.0000, -20.0000, 29.9622, -0.0139, -0.0501, 0.9986
-16.1855, -20.0000, 30.3639, -0.0122, -0.0136, 0.9998
-16.5670, -20.0000, 30.8275, -0.0127, -0.0140, 0.9998
16.7742, -20.0000, 30.8258, 0.0132, -0.0141, 0.9998
20.0000, -20.0000, 30.4660, 0.0469, -0.0142, 0.9988
20.0000, -16.5672, 30.8277, 0.0140, -0.0114, 0.9998
20.0000, 16.3723, 30.8326, 0.0139, 0.0083, 0.9999
20.0000, 20.0000, 30.4718, 0.0142, 0.0468, 0.9988
16.5715, 20.0000, 30.8330, 0.0104, 0.0139, 0.9998
-16.7748, 20.0000, 30.8266, -0.0138, 0.0139, 0.9998
-20.0000, 20.0000, 30.4692, -0.0461, 0.0141, 0.9988
-20.0000, 16.5683, 30.8291, -0.0140, 0.0116, 0.9998
-20.0000, -16.3679, 30.8275, -0.0140, -0.0090, 0.9999
-20.0000, -20.0000, 30.4660, -0.0142, -0.0467, 0.9988
-16.5670, -20.0000, 30.8275, -0.0127, -0.0140, 0.9998
-16.9484, -20.0000, 31.2911, -0.0132, -0.0143, 0.9998
20.0000, -20.0000, 30.9698, 0.0436, -0.0146, 0.9989
20.0000, 16.7759, 31.2963, 0.0143, 0.0093, 0.9999
20.0000, 20.0000, 30.9756, 0.0145, 0.0435, 0.9989
16.9530, 20.0000, 31.2967, 0.0112, 0.0143, 0.9998
-20.0000, 20.0000, 30.9728, -0.0429, 0.0144, 0.9990
-20.0000, -16.7714, 31.2911, -0.0143, -0.0099, 0.9998
-20.0000, -20.0000, 30.9698, -0.0145, -0.0434, 0.9990
-16.9484, -20.0000, 31.2911, -0.0132, -0.0143, 0.9998
-17.3299, -20.0000, 31.7547, -0.0137, -0.0147, 0.9998
20.0000, -20.0000, 31.4736, 0.0402, -0.0149, 0.9991
20.0000, 20.0000, 31.4795, 0.0148, 0.0402, 0.9991
-20.0000, 20.0000, 31.4765, -0.0396, 0.0148, 0.9991
-20.0000, -20.0000, 31.4736, -0.0148, -0.0401, 0.9991
-17.3299, -20.0000, 31.7547, -0.0137, -0.0147, 0.9998
-17.7113, -20.0000, 32.2183, -0.0142, -0.0150, 0.9998
20.0000, -20.0000, 31.9773, 0.0369, -0.0152, 0.9992
20.0000, 20.0000, 31.9833, 0.0151, 0.0368, 0.9992
-20.0000, 20.0000, 31.9802, -0.0364, 0.0151, 0.9992
-20.0000, -20.0000, 31.9773, -0.0151, -0.0368, 0.9992
-17.7113, -20.0000, 32.2183, -0.0142, -0.0150, 0.9998
-18.0928, -20.0000, 32.6819, -0.0146, -0.0154, 0.9998
20.0000, -20.0000, 32.4811, 0.0336, -0.0155, 0.9993
20.0000, 20.0000, 32.4872, 0.0154, 0.0335, 0.9993
-20.0000, 20.0000, 32.4838, -0.0331, 0.0154, 0.9993
-20.0000, -20.0000, 32.4811, -0.0155, -0.0335, 0.9993
-18.0928, -20.0000, 32.6819, -0.0146, -0.0154, 0.9998
-18.4742, -20.0000, 33.1456, -0.0201, -0.0157, 0.9997
20.0000, -20.0000, 32.9849, 0.0302, -0.0158, 0.9994
20.0000, 20.0000, 32.9910, 0.0158, 0.0302, 0.9994
-20.0000, 20.0000, 32.9875, -0.0299, 0.0157, 0.9994
-20.0000, -20.0000, 32.9849, -0.0158, -0.0302, 0.9994
-18.4742, -20.0000, 33.1456, -0.0201, -0.0157, 0.9997
-18.8557, -20.0000, 33.6092, -0.0193, -0.0161, 0.9997
20.0000, -20.0000, 33.4887, 0.0269, -0.0162, 0.9995
20.0000, 20.0000, 33.4948, 0.0161, 0.0268, 0.9995
-20.0000, 20.0000, 33.4911, -0.0267, 0.0160, 0.9995
-20.0000, -20.0000, 33.4887, -0.0161, -0.0269, 0.9995
-18.8557, -20.0000, 33.6092, -0.0193, -0.0161, 0.9997
-19.2371, -20.0000, 34.0728, -0.0186, -0.0164, 0.9997
20.0000, -20.0000, 33.9924, 0.0236, -0.0165, 0.9996
20.0000, 20.0000, 33.9987, 0.0164, 0.0235, 0.9996
-20.0000, 20.0000, 33.9948, -0.0235, 0.0163, 0.9996
-20.0000, -20.0000, 33.9925, -0.0164, -0.0236, 0.9996
-19.2371, -20.0000, 34.0728, -0.0186, -0.0164, 0.9997
-19.6186, -20.0000, 34.5364, -0.0178, -0.0167, 0.9997
20.0000, -20.0000, 34.4962, 0.0167, -0.0204, 0.9997
20.0000, 20.0000, 34.5025, 0.0204, 0.0167, 0.9997
-20.0000, 20.0000, 34.4985, -0.0167, 0.0203, 0.9997
-20.0000, -20.0000, 34.4962, -0.0204, -0.0168, 0.9997
-19.6186, -20.0000, 34.5364, -0.0178, -0.0167, 0.9997
