X Y Z i j k
14.2974, 24.7409, 40.0997, 0.0019, 0.5310, 0.8474
16.8135, 32.1069, 34.2690, 0.0081, 0.7055, 0.7086
16.8110, 32.9082, 35.1330, 0.0079, 0.7056, 0.7086
18.0647, 36.2252, 31.6515, -0.0092, 0.7473, 0.6645
21.9354, 35.6023, 32.4465, -0.0108, 0.7259, 0.6878
20.1674, 30.7471, 37.1768, -0.0056, 0.6336, 0.7737
18.9092, 26.9308, 40.1303, -0.0021, 0.5660, 0.8244
17.0224, 20.6791, 43.7643, -0.0043, 0.4313, 0.9022
15.7652, 16.2821, 45.7432, -0.0025, 0.3453, 0.9385
14.3474, 10.9386, 47.3450, -0.0015, 0.2443, 0.9697
12.6216, 4.5817, 48.5853, -0.0030, 0.1034, 0.9946
11.3639, -0.2381, 48.8333, -0.0012, 0.0137, 0.9999
9.4778, -7.4630, 48.4829, -0.0034, -0.1450, 0.9894
6.3343, -19.1218, 45.4402, -0.0050, -0.3876, 0.9218
3.6564, -28.2753, 40.4933, 0.0006, -0.5508, 0.8347
1.9354, -33.4011, 36.5570, 0.0023, -0.6325, 0.7746
-1.9355, -32.6833, 37.2672, 0.0261, -0.6080, 0.7935
0.4618, -25.0788, 42.4257, 0.0018, -0.5028, 0.8644
2.3486, -18.5855, 45.6073, 0.0013, -0.3749, 0.9271
5.4922, -6.9021, 48.5168, 0.0017, -0.1349, 0.9909
7.3786, 0.3240, 48.7993, 0.0039, 0.0239, 0.9997
9.8935, 9.8924, 47.6788, 0.0031, 0.2153, 0.9765
11.7797, 16.7950, 45.5124, 0.0025, 0.3549, 0.9349
13.0370, 21.2253, 43.6010, 0.0008, 0.4373, 0.8993
14.2949, 25.3567, 41.1034, 0.0017, 0.5308, 0.8475
16.8110, 32.9082, 35.1330, 0.0079, 0.7056, 0.7086
16.8084, 33.7095, 35.9969, 0.0077, 0.7057, 0.7085
18.0624, 37.1090, 32.4327, -0.0087, 0.7471, 0.6646
21.9377, 36.4982, 33.2123, -0.0110, 0.7267, 0.6869
20.1699, 31.5353, 38.0664, -0.0054, 0.6343, 0.7730
18.9117, 27.6216, 41.0850, -0.0020, 0.5666, 0.8240
17.0249, 21.2218, 44.8113, -0.0043, 0.4312, 0.9022
15.7677, 16.7187, 46.8380, -0.0024, 0.3461, 0.9382
14.3006, 11.0389, 48.5317, -0.0017, 0.2402, 0.9707
12.6241, 4.7375, 49.7539, -0.0028, 0.1043, 0.9945
11.3664, -0.1983, 50.0105, -0.0011, 0.0144, 0.9999
9.4803, -7.5976, 49.6544, -0.0032, -0.1440, 0.9896
6.3368, -19.5387, 46.5436, -0.0047, -0.3863, 0.9224
3.6090, -29.1008, 41.3703, 0.0001, -0.5559, 0.8313
1.9377, -34.1670, 37.4529, 0.0030, -0.6330, 0.7741
-1.9379, -33.4646, 38.1511, 0.0259, -0.6085, 0.7931
0.4593, -25.6802, 43.4381, 0.0016, -0.5030, 0.8643
2.3461, -19.0326, 46.7013, 0.0012, -0.3747, 0.9271
4.2324, -11.9240, 48.7868, 0.0033, -0.2232, 0.9748
5.4897, -7.0682, 49.6865, 0.0016, -0.1347, 0.9909
7.3761, 0.3323, 49.9784, 0.0037, 0.0238, 0.9997
9.8910, 10.1303, 48.8253, 0.0030, 0.2155, 0.9765
11.7772, 17.2028, 46.6201, 0.0024, 0.3550, 0.9349
13.0344, 21.7413, 44.6650, 0.0007, 0.4376, 0.8992
14.2924, 25.9725, 42.1071, 0.0016, 0.5307, 0.8476
16.8084, 33.7095, 35.9969, 0.0077, 0.7057, 0.7085
16.8059, 34.5108, 36.8609, 0.0074, 0.7057, 0.7084
18.0600, 37.9928, 33.2138, -0.0082, 0.7470, 0.6647
21.9401, 37.3940, 33.9782, -0.0109, 0.7311, 0.6822
20.1724, 32.3235, 38.9559, -0.0052, 0.6351, 0.7724
18.9142, 28.3123, 42.0397, -0.0019, 0.5673, 0.8235
17.0275, 21.7645, 45.8583, -0.0043, 0.4311, 0.9023
15.7702, 17.1553, 47.9328, -0.0022, 0.3470, 0.9379
14.2537, 11.1392, 49.7184, -0.0018, 0.2361, 0.9717
12.6266, 4.8933, 50.9224, -0.0026, 0.1052, 0.9944
11.3689, -0.1586, 51.1878, -0.0010, 0.0151, 0.9999
9.4828, -7.7322, 50.8260, -0.0030, -0.1430, 0.9897
6.3393, -19.9557, 47.6470, -0.0043, -0.3850, 0.9229
3.5617, -29.9263, 42.2472, -0.0004, -0.5610, 0.8278
1.9401, -34.9329, 38.3487, 0.0037, -0.6336, 0.7737
-1.9402, -34.2459, 39.0351, 0.0248, -0.6171, 0.7865
0.4568, -26.2817, 44.4504, 0.0014, -0.5031, 0.8642
2.3436, -19.4797, 47.7953, 0.0011, -0.3745, 0.9272
4.2299, -12.2042, 49.9326, 0.0031, -0.2233, 0.9748
5.4872, -7.2343, 50.8561, 0.0015, -0.1345, 0.9909
7.3736, 0.3407, 51.1576, 0.0035, 0.0238, 0.9997
9.8885, 10.3682, 49.9718, 0.0029, 0.2157, 0.9765
11.7747, 17.6107, 47.7278, 0.0023, 0.3550, 0.9348
13.0319, 22.2573, 45.7290, 0.0007, 0.4379, 0.8990
14.2899, 26.5883, 43.1108, 0.0014, 0.5305, 0.8477
16.8059, 34.5108, 36.8609, 0.0074, 0.7057, 0.7084
16.8034, 35.3121, 37.7248, 0.0072, 0.7058, 0.7084
18.0577, 38.8767, 33.9950, -0.0078, 0.7469, 0.6649
21.9424, 38.2898, 34.7441, -0.0109, 0.7335, 0.6796
20.1749, 33.1117, 39.8455, -0.0050, 0.6358, 0.7718
18.9168, 29.0031, 42.9944, -0.0017, 0.5680, 0.8230
17.0300, 22.3072, 46.9054, -0.0043, 0.4311, 0.9023
15.7727, 17.5918, 49.0276, -0.0021, 0.3478, 0.9376
14.2069, 11.2395, 50.9051, -0.0020, 0.2320, 0.9727
12.6291, 5.0491, 52.0910, -0.0025, 0.1061, 0.9943
11.3714, -0.1188, 52.3650, -0.0009, 0.0158, 0.9999
9.4853, -7.8668, 51.9975, -0.0028, -0.1421, 0.9899
8.2278, -12.9451, 50.9939, -0.0013, -0.2309, 0.9730
6.3418, -20.3727, 48.7504, -0.0040, -0.3837, 0.9234
3.5143, -30.7517, 43.1241, -0.0009, -0.5660, 0.8244
1.9424, -35.6988, 39.2445, 0.0044, -0.6341, 0.7732
-1.9425, -35.0272, 39.9191, 0.0246, -0.6208, 0.7836
0.4543, -26.8831, 45.4628, 0.0012, -0.5033, 0.8641
2.3411, -19.9268, 48.8894, 0.0011, -0.3743, 0.9273
4.2274, -12.4844, 51.0784, 0.0030, -0.2233, 0.9748
5.4846, -7.4003, 52.0257, 0.0014, -0.1343, 0.9909
7.3711, 0.3490, 52.3367, 0.0033, 0.0237, 0.9997
9.8860, 10.6062, 51.1183, 0.0028, 0.2158, 0.9764
11.7722, 18.0185, 48.8355, 0.0022, 0.3551, 0.9348
13.0294, 22.7733, 46.7930, 0.0006, 0.4381, 0.8989
14.2874, 27.2040, 44.1145, 0.0012, 0.5303, 0.8478
16.1742, 33.4792, 39.5577, 0.0010, 0.6461, 0.7633
16.8034, 35.3121, 37.7248, 0.0072, 0.7058, 0.7084
16.8008, 36.1134, 38.5887, 0.0070, 0.7059, 0.7083
18.0554, 39.7605, 34.7762, -0.0073, 0.7468, 0.6650
21.9447, 39.1857, 35.5100, -0.0110, 0.7360, 0.6769
20.1774, 33.8999, 40.7350, -0.0047, 0.6366, 0.7712
18.9193, 29.6938, 43.9491, -0.0016, 0.5687, 0.8226
17.0325, 22.8500, 47.9524, -0.0043, 0.4310, 0.9023
15.7752, 18.0284, 50.1224, -0.0020, 0.3486, 0.9373
14.5177, 12.9775, 51.6932, -0.0005, 0.2623, 0.9650
12.6316, 5.2049, 53.2596, -0.0023, 0.1070, 0.9943
11.3739, -0.0790, 53.5423, -0.0009, 0.0165, 0.9999
9.4878, -8.0014, 53.1690, -0.0026, -0.1411, 0.9900
8.2303, -13.1944, 52.1454, -0.0012, -0.2302, 0.9731
6.3443, -20.7897, 49.8539, -0.0037, -0.3824, 0.9240
3.4670, -31.5772, 44.0011, -0.0014, -0.5711, 0.8209
1.9447, -36.4646, 40.1404, 0.0051, -0.6347, 0.7727
-1.9449, -35.8085, 40.8030, 0.0244, -0.6245, 0.7806
0.4518, -27.4846, 46.4752, 0.0011, -0.5034, 0.8640
2.3385, -20.3740, 49.9834, 0.0010, -0.3740, 0.9274
4.2249, -12.7646, 52.2241, 0.0028, -0.2233, 0.9747
5.4821, -7.5664, 53.1953, 0.0013, -0.1341, 0.9910
7.3685, 0.3574, 53.5159, 0.0031, 0.0236, 0.9997
9.8835, 10.8441, 52.2648, 0.0027, 0.2160, 0.9764
11.7697, 18.4263, 49.9433, 0.0020, 0.3552, 0.9348
13.0269, 23.2893, 47.8570, 0.0006, 0.4384, 0.8988
14.2848, 27.8198, 45.1182, 0.0010, 0.5302, 0.8479
16.1717, 34.2392, 40.4630, 0.0009, 0.6463, 0.7631
16.8008, 36.1134, 38.5887, 0.0070, 0.7059, 0.7083
16.7983, 36.9147, 39.4527, 0.0068, 0.7059, 0.7083
18.0530, 40.6444, 35.5574, -0.0049, 0.7456, 0.6663
21.9470, 40.0815, 36.2758, -0.0110, 0.7384, 0.6743
20.1799, 34.6881, 41.6246, -0.0045, 0.6373, 0.7706
18.9218, 30.3845, 44.9038, -0.0015, 0.5694, 0.8221
17.0350, 23.3927, 48.9994, -0.0043, 0.4309, 0.9024
15.7778, 18.4650, 51.2172, -0.0018, 0.3494, 0.9370
14.5202, 13.3038, 52.8249, -0.0004, 0.2629, 0.9648
12.6342, 5.3607, 54.4282, -0.0021, 0.1080, 0.9942
11.3764, -0.0392, 54.7196, -0.0008, 0.0172, 0.9999
9.4904, -8.1359, 54.3405, -0.0024, -0.1401, 0.9901
8.2328, -13.4436, 53.2968, -0.0011, -0.2295, 0.9733
6.3469, -21.2066, 50.9573, -0.0033, -0.3811, 0.9245
3.4196, -32.4027, 44.8780, -0.0019, -0.5761, 0.8174
1.9470, -37.2305, 41.0362, 0.0085, -0.6335, 0.7737
-1.9472, -36.5898, 41.6870, 0.0242, -0.6282, 0.7776
0.4493, -28.0860, 47.4875, 0.0009, -0.5036, 0.8639
2.3360, -20.8211, 51.0774, 0.0009, -0.3738, 0.9275
4.2224, -13.0447, 53.3699, 0.0026, -0.2233, 0.9747
5.4796, -7.7325, 54.3650, 0.0013, -0.1339, 0.9910
7.3660, 0.3658, 54.6951, 0.0030, 0.0236, 0.9997
8.6235, 5.7586, 54.3552, 0.0016, 0.1142, 0.9935
9.8810, 11.0820, 53.4112, 0.0026, 0.2161, 0.9764
11.7672, 18.8342, 51.0510, 0.0019, 0.3553, 0.9348
13.0244, 23.8053, 48.9210, 0.0005, 0.4387, 0.8987
14.2823, 28.4356, 46.1219, 0.0008, 0.5300, 0.8480
16.1691, 34.9992, 41.3682, 0.0009, 0.6465, 0.7629
16.7983, 36.9147, 39.4527, 0.0068, 0.7059, 0.7083
16.7958, 37.7160, 40.3166, 0.0066, 0.7060, 0.7082
18.0507, 41.5282, 36.3386, -0.0066, 0.7489, 0.6627
21.9494, 40.9773, 37.0417, -0.0110, 0.7408, 0.6716
20.1825, 35.4764, 42.5141, -0.0043, 0.6381, 0.7700
18.9243, 31.0753, 45.8585, -0.0013, 0.5700, 0.8216
17.0376, 23.9354, 50.0464, -0.0043, 0.4308, 0.9024
15.7803, 18.9016, 52.3119, -0.0017, 0.3502, 0.9367
14.5228, 13.6301, 53.9566, -0.0004, 0.2636, 0.9646
12.6367, 5.5164, 55.5967, -0.0020, 0.1089, 0.9941
11.3790, 0.0005, 55.8968, -0.0007, 0.0180, 0.9998
9.4929, -8.2705, 55.5121, -0.0023, -0.1392, 0.9903
8.2353, -13.6928, 54.4483, -0.0010, -0.2287, 0.9735
6.3494, -21.6236, 52.0607, -0.0030, -0.3798, 0.9250
5.0913, -26.6212, 49.6970, -0.0013, -0.4613, 0.8872
3.3722, -33.2282, 45.7549, -0.0024, -0.5811, 0.8138
1.9494, -37.9964, 41.9320, 0.0055, -0.6413, 0.7673
-1.9495, -37.3711, 42.5710, 0.0240, -0.6319, 0.7747
0.4468, -28.6875, 48.4999, 0.0007, -0.5038, 0.8638
2.3335, -21.2682, 52.1715, 0.0009, -0.3736, 0.9276
4.2198, -13.3249, 54.5157, 0.0025, -0.2233, 0.9747
5.4771, -7.8986, 55.5346, 0.0012, -0.1338, 0.9910
7.3635, 0.3741, 55.8742, 0.0028, 0.0235, 0.9997
8.6210, 5.8834, 55.5295, 0.0015, 0.1143, 0.9934
9.8785, 11.3199, 54.5577, 0.0025, 0.2163, 0.9763
11.7646, 19.2420, 52.1587, 0.0018, 0.3554, 0.9347
13.0219, 24.3213, 49.9851, 0.0005, 0.4389, 0.8985
14.2798, 29.0514, 47.1256, 0.0007, 0.5298, 0.8481
16.1666, 35.7592, 42.2735, 0.0008, 0.6466, 0.7628
16.7958, 37.7160, 40.3166, 0.0066, 0.7060, 0.7082
16.7932, 38.5174, 41.1806, 0.0064, 0.7060, 0.7081
18.0484, 42.4120, 37.1197, -0.0032, 0.7451, 0.6669
21.9517, 41.8732, 37.8076, -0.0110, 0.7432, 0.6689
20.1850, 36.2646, 43.4036, -0.0041, 0.6388, 0.7693
18.9268, 31.7660, 46.8132, -0.0012, 0.5707, 0.8211
17.0401, 24.4781, 51.0934, -0.0043, 0.4307, 0.9025
15.7828, 19.3381, 53.4067, -0.0015, 0.3510, 0.9364
14.5253, 13.9563, 55.0883, -0.0003, 0.2642, 0.9645
12.6392, 5.6722, 56.7653, -0.0018, 0.1098, 0.9940
11.3815, 0.0403, 57.0741, -0.0006, 0.0187, 0.9998
9.4954, -8.4051, 56.6836, -0.0021, -0.1382, 0.9904
8.2378, -13.9420, 55.5997, -0.0009, -0.2280, 0.9737
6.3519, -22.0406, 53.1641, -0.0027, -0.3786, 0.9256
5.0939, -27.1444, 50.7528, -0.0012, -0.4606, 0.8876
3.3249, -34.0537, 46.6318, -0.0029, -0.5861, 0.8102
1.9517, -38.7623, 42.8279, 0.0021, -0.6323, 0.7748
-1.9518, -38.1524, 43.4549, 0.0238, -0.6356, 0.7716
0.4444, -29.2889, 49.5123, 0.0005, -0.5039, 0.8638
2.3310, -21.7153, 53.2655, 0.0008, -0.3734, 0.9277
4.2173, -13.6051, 55.6615, 0.0023, -0.2234, 0.9747
5.4746, -8.0647, 56.7042, 0.0011, -0.1336, 0.9910
7.3610, 0.3825, 57.0534, 0.0026, 0.0234, 0.9997
8.6184, 6.0081, 56.7038, 0.0014, 0.1145, 0.9934
9.8760, 11.5579, 55.7042, 0.0024, 0.2165, 0.9763
11.7621, 19.6498, 53.2664, 0.0017, 0.3555, 0.9347
13.0194, 24.8373, 51.0491, 0.0005, 0.4392, 0.8984
14.2773, 29.6672, 48.1293, 0.0005, 0.5297, 0.8482
16.1640, 36.5192, 43.1787, 0.0007, 0.6468, 0.7626
16.7932, 38.5174, 41.1806, 0.0064, 0.7060, 0.7081
16.7907, 39.3187, 42.0445, 0.0061, 0.7061, 0.7081
18.0461, 43.2959, 37.9009, -0.0055, 0.7464, 0.6655
21.9540, 42.7689, 38.5736, -0.0110, 0.7455, 0.6665
20.1875, 37.0528, 44.2932, -0.0039, 0.6396, 0.7687
18.9293, 32.4567, 47.7679, -0.0011, 0.5714, 0.8207
17.0426, 25.0209, 52.1404, -0.0043, 0.4307, 0.9025
15.7853, 19.7747, 54.5015, -0.0014, 0.3519, 0.9361
14.5278, 14.2826, 56.2200, -0.0002, 0.2648, 0.9643
12.6417, 5.8280, 57.9339, -0.0016, 0.1107, 0.9939
11.3840, 0.0801, 58.2513, -0.0005, 0.0194, 0.9998
9.4979, -8.5397, 57.8551, -0.0019, -0.1373, 0.9905
8.2403, -14.1912, 56.7512, -0.0008, -0.2272, 0.9738
6.3544, -22.4576, 54.2676, -0.0023, -0.3773, 0.9261
5.0964, -27.6675, 51.8086, -0.0010, -0.4599, 0.8880
3.2775, -34.8792, 47.5088, -0.0045, -0.5961, 0.8029
1.9540, -39.5282, 43.7236, 0.0083, -0.6373, 0.7705
-1.9541, -38.9335, 44.3391, 0.0231, -0.6387, 0.7691
0.4419, -29.8903, 50.5246, 0.0004, -0.5041, 0.8637
2.3284, -22.1624, 54.3595, 0.0007, -0.3732, 0.9278
4.2148, -13.8852, 56.8073, 0.0021, -0.2234, 0.9747
5.4721, -8.2307, 57.8738, 0.0010, -0.1334, 0.9911
7.3585, 0.3909, 58.2325, 0.0024, 0.0233, 0.9997
8.6159, 6.1329, 57.8780, 0.0013, 0.1146, 0.9934
9.8735, 11.7958, 56.8507, 0.0023, 0.2166, 0.9762
11.7596, 20.0577, 54.3742, 0.0016, 0.3555, 0.9347
13.0168, 25.3534, 52.1131, 0.0004, 0.4394, 0.8983
14.2748, 30.2830, 49.1330, 0.0003, 0.5295, 0.8483
16.1615, 37.2792, 44.0840, 0.0007, 0.6470, 0.7625
16.7907, 39.3187, 42.0445, 0.0061, 0.7061, 0.7081
16.7882, 40.1200, 42.9085, 0.0059, 0.7062, 0.7080
18.0444, 44.1808, 38.6807, -0.0078, 0.7477, 0.6640
21.9557, 43.6637, 39.3408, -0.0107, 0.7453, 0.6666
20.1900, 37.8410, 45.1827, -0.0037, 0.6403, 0.7681
18.9318, 33.1475, 48.7226, -0.0010, 0.5721, 0.8202
17.0451, 25.5636, 53.1874, -0.0043, 0.4306, 0.9025
15.7878, 20.2113, 55.5963, -0.0012, 0.3527, 0.9357
14.5303, 14.6088, 57.3517, -0.0002, 0.2655, 0.9641
12.6442, 5.9838, 59.1025, -0.0015, 0.1116, 0.9937
11.3865, 0.1198, 59.4286, -0.0004, 0.0201, 0.9998
9.5004, -8.6743, 59.0267, -0.0017, -0.1363, 0.9907
8.2429, -14.4404, 57.9026, -0.0007, -0.2265, 0.9740
6.3569, -22.8745, 55.3710, -0.0020, -0.3760, 0.9266
5.0989, -28.1907, 52.8644, -0.0009, -0.4592, 0.8884
3.2302, -35.7047, 48.3857, -0.0042, -0.5973, 0.8020
1.9557, -40.2954, 44.6184, 0.0146, -0.6423, 0.7663
-1.9558, -39.7136, 45.2242, 0.0194, -0.6381, 0.7697
0.4394, -30.4918, 51.5370, 0.0002, -0.5042, 0.8636
2.3259, -22.6096, 55.4536, 0.0007, -0.3730, 0.9278
4.2123, -14.1654, 57.9530, 0.0020, -0.2234, 0.9747
5.4695, -8.3968, 59.0434, 0.0009, -0.1332, 0.9911
7.3560, 0.3992, 59.4117, 0.0022, 0.0233, 0.9997
8.6134, 6.2577, 59.0523, 0.0012, 0.1147, 0.9934
9.8710, 12.0337, 57.9972, 0.0022, 0.2168, 0.9762
11.7571, 20.4655, 55.4819, 0.0014, 0.3556, 0.9346
13.0143, 25.8694, 53.1771, 0.0004, 0.4397, 0.8981
14.2723, 30.8987, 50.1367, 0.0001, 0.5293, 0.8484
16.1589, 38.0392, 44.9892, 0.0006, 0.6472, 0.7623
16.7882, 40.1200, 42.9085, 0.0059, 0.7062, 0.7080
16.7863, 40.9226, 43.7711, 0.0057, 0.7062, 0.7080
18.0428, 45.0660, 39.4602, -0.0101, 0.7490, 0.6625
21.9573, 44.5582, 40.1084, -0.0105, 0.7451, 0.6668
20.1917, 38.6239, 46.0698, -0.0035, 0.6416, 0.7670
18.9336, 33.8365, 49.6786, -0.0009, 0.5731, 0.8195
17.0470, 26.1076, 54.2413, -0.0042, 0.4307, 0.9025
15.7896, 20.6459, 56.6920, -0.0011, 0.3532, 0.9356
14.5069, 14.7888, 58.5200, 0.0001, 0.2647, 0.9643
12.6460, 6.1374, 60.2714, -0.0013, 0.1127, 0.9936
11.3883, 0.1576, 60.6060, -0.0003, 0.0211, 0.9998
9.5022, -8.8112, 60.1980, -0.0016, -0.1357, 0.9907
8.2447, -14.6917, 59.0537, -0.0006, -0.2260, 0.9741
6.3586, -23.2938, 56.4737, -0.0018, -0.3745, 0.9272
5.1007, -28.7157, 53.9194, -0.0008, -0.4584, 0.8887
3.2139, -36.4354, 49.3199, -0.0040, -0.5967, 0.8024
1.9573, -41.0631, 45.5128, 0.0208, -0.6473, 0.7620
-1.9574, -40.4933, 46.1098, 0.0157, -0.6375, 0.7703
0.4375, -31.0916, 52.5503, 0.0000, -0.5044, 0.8635
2.3242, -23.0545, 56.5483, 0.0006, -0.3723, 0.9281
4.2104, -14.4436, 59.0992, 0.0019, -0.2228, 0.9749
5.4678, -8.5606, 60.2132, 0.0009, -0.1322, 0.9912
7.3541, 0.4096, 60.5907, 0.0021, 0.0238, 0.9997
8.6116, 6.3846, 60.2261, 0.0011, 0.1154, 0.9933
9.8692, 12.2743, 59.1468, 0.0020, 0.2169, 0.9762
11.7553, 20.8753, 56.5887, 0.0014, 0.3565, 0.9343
13.0126, 26.3874, 54.2399, 0.0004, 0.4413, 0.8974
14.2704, 31.5161, 51.1395, -0.0001, 0.5290, 0.8486
16.1572, 38.8009, 45.8928, 0.0006, 0.6482, 0.7615
16.7863, 40.9226, 43.7711, 0.0057, 0.7062, 0.7080
16.7850, 41.7266, 44.6323, 0.0054, 0.7063, 0.7079
18.0414, 45.9515, 40.2392, -0.0068, 0.7447, 0.6673
21.9587, 45.4524, 40.8764, -0.0108, 0.7414, 0.6710
20.1928, 39.4035, 46.9555, -0.0032, 0.6433, 0.7656
18.9348, 34.5242, 50.6357, -0.0008, 0.5746, 0.8185
17.0482, 26.6528, 55.3016, -0.0041, 0.4311, 0.9023
15.7908, 21.0789, 57.7884, -0.0011, 0.3534, 0.9355
14.4587, 14.8291, 59.7234, 0.0005, 0.2626, 0.9649
12.6472, 6.2894, 61.4407, -0.0013, 0.1138, 0.9935
11.3895, 0.1935, 61.7835, -0.0002, 0.0225, 0.9997
9.5034, -8.9496, 61.3693, -0.0015, -0.1355, 0.9908
8.2459, -14.9446, 60.2045, -0.0005, -0.2258, 0.9742
6.3598, -23.7144, 57.5760, -0.0017, -0.3729, 0.9279
5.1019, -29.2424, 54.9736, -0.0007, -0.4576, 0.8892
3.2151, -37.1129, 50.2863, -0.0037, -0.5951, 0.8037
1.9587, -41.8311, 46.4070, 0.0138, -0.6379, 0.7700
-1.9588, -41.2727, 46.9957, 0.0178, -0.6304, 0.7760
0.4363, -31.6898, 53.5647, -0.0000, -0.5045, 0.8634
2.3230, -23.4979, 57.6435, 0.0007, -0.3714, 0.9285
4.2092, -14.7200, 60.2457, 0.0018, -0.2216, 0.9751
5.4666, -8.7229, 61.3830, 0.0009, -0.1307, 0.9914
7.3529, 0.4218, 61.7697, 0.0021, 0.0248, 0.9997
8.6104, 6.5132, 61.3997, 0.0011, 0.1165, 0.9932
9.8680, 12.5174, 60.2994, 0.0017, 0.2170, 0.9762
11.7541, 21.2866, 57.6949, 0.0014, 0.3581, 0.9337
13.0114, 26.9068, 55.3019, 0.0006, 0.4436, 0.8962
14.2692, 32.1352, 52.1412, -0.0004, 0.5284, 0.8490
16.1560, 39.5637, 46.7953, 0.0007, 0.6497, 0.7602
16.7850, 41.7266, 44.6323, 0.0054, 0.7063, 0.7079
16.7838, 42.5307, 45.4936, 0.0052, 0.7063, 0.7079
18.0400, 46.8370, 41.0183, -0.0053, 0.7424, 0.6700
21.9601, 46.3466, 41.6443, -0.0109, 0.7389, 0.6738
20.1940, 40.1831, 47.8411, -0.0030, 0.6450, 0.7642
18.9360, 35.2120, 51.5927, -0.0008, 0.5760, 0.8175
17.0494, 27.1980, 56.3618, -0.0040, 0.4314, 0.9021
15.7920, 21.5120, 58.8847, -0.0010, 0.3537, 0.9354
14.4105, 14.8695, 60.9267, -0.0006, 0.2556, 0.9668
12.6484, 6.4414, 62.6100, -0.0012, 0.1149, 0.9934
11.3907, 0.2295, 62.9610, -0.0001, 0.0238, 0.9997
9.5046, -9.0880, 62.5406, -0.0015, -0.1352, 0.9908
8.2471, -15.1976, 61.3552, -0.0005, -0.2255, 0.9742
6.3610, -24.1351, 58.6783, -0.0016, -0.3714, 0.9285
5.1031, -29.7690, 56.0279, -0.0007, -0.4568, 0.8896
3.2164, -37.7904, 51.2527, -0.0034, -0.5935, 0.8049
1.9601, -42.5991, 47.3012, 0.0116, -0.6337, 0.7735
-1.9602, -42.0521, 47.8815, 0.0177, -0.6259, 0.7797
0.4351, -32.2879, 54.5790, -0.0001, -0.5046, 0.8633
2.3217, -23.9413, 58.7386, 0.0007, -0.3705, 0.9288
4.2080, -14.9964, 61.3921, 0.0017, -0.2204, 0.9754
5.4654, -8.8851, 62.5529, 0.0010, -0.1292, 0.9916
7.3517, 0.4340, 62.9486, 0.0021, 0.0259, 0.9997
8.6092, 6.6417, 62.5733, 0.0011, 0.1176, 0.9931
9.8668, 12.7605, 61.4520, 0.0015, 0.2170, 0.9762
11.7529, 21.6980, 58.8010, 0.0013, 0.3597, 0.9331
13.0102, 27.4261, 56.3639, 0.0007, 0.4458, 0.8951
14.2680, 32.7543, 53.1429, -0.0007, 0.5279, 0.8493
16.1547, 40.3264, 47.6978, 0.0008, 0.6513, 0.7588
16.7838, 42.5307, 45.4936, 0.0052, 0.7063, 0.7079
16.7826, 43.3347, 46.3548, 0.0050, 0.7064, 0.7078
18.0386, 47.7225, 41.7973, -0.0039, 0.7400, 0.6726
21.9615, 47.2408, 42.4123, -0.0110, 0.7364, 0.6765
20.1952, 40.9627, 48.7268, -0.0028, 0.6466, 0.7628
18.9371, 35.8997, 52.5498, -0.0008, 0.5774, 0.8165
17.0506, 27.7432, 57.4221, -0.0038, 0.4317, 0.9020
15.7932, 21.9451, 59.9811, -0.0010, 0.3539, 0.9353
14.3623, 14.9098, 62.1300, -0.0008, 0.2515, 0.9678
12.6496, 6.5934, 63.7792, -0.0011, 0.1161, 0.9932
11.3919, 0.2654, 64.1385, 0.0000, 0.0251, 0.9997
9.5058, -9.2264, 63.7119, -0.0014, -0.1349, 0.9909
8.2483, -15.4506, 62.5060, -0.0005, -0.2253, 0.9743
6.3622, -24.5557, 59.7805, -0.0015, -0.3698, 0.9291
5.1044, -30.2957, 57.0821, -0.0006, -0.4560, 0.8900
3.2176, -38.4679, 52.2191, -0.0031, -0.5918, 0.8061
1.9615, -43.3671, 48.1954, 0.0094, -0.6294, 0.7770
-1.9616, -42.8315, 48.7674, 0.0175, -0.6213, 0.7834
0.4340, -32.8861, 55.5934, -0.0002, -0.5048, 0.8633
2.3205, -24.3847, 59.8338, 0.0007, -0.3696, 0.9292
4.2068, -15.2728, 62.5386, 0.0016, -0.2191, 0.9757
5.4642, -9.0473, 63.7228, 0.0010, -0.1277, 0.9918
7.3505, 0.4462, 64.1275, 0.0021, 0.0270, 0.9996
8.6080, 6.7703, 63.7468, 0.0011, 0.1187, 0.9929
9.8656, 13.0036, 62.6045, 0.0012, 0.2170, 0.9762
11.7517, 22.1093, 59.9072, 0.0013, 0.3613, 0.9325
13.0090, 27.9454, 57.4259, 0.0008, 0.4481, 0.8940
14.2668, 33.3733, 54.1446, -0.0010, 0.5273, 0.8497
16.1535, 41.0891, 48.6004, 0.0009, 0.6528, 0.7575
16.7826, 43.3347, 46.3548, 0.0050, 0.7064, 0.7078
16.7814, 44.1387, 47.2160, 0.0047, 0.7064, 0.7078
18.0371, 48.6080, 42.5764, -0.0025, 0.7376, 0.6753
21.9630, 48.1350, 43.1802, -0.0110, 0.7338, 0.6792
20.1964, 41.7423, 49.6124, -0.0026, 0.6483, 0.7614
18.9383, 36.5874, 53.5069, -0.0007, 0.5788, 0.8155
17.0519, 28.2884, 58.4824, -0.0037, 0.4321, 0.9018
15.7944, 22.3781, 61.0775, -0.0009, 0.3542, 0.9352
14.3141, 14.9502, 63.3333, -0.0011, 0.2475, 0.9689
12.6508, 6.7454, 64.9485, -0.0010, 0.1172, 0.9931
11.3931, 0.3014, 65.3160, 0.0002, 0.0264, 0.9997
9.5070, -9.3649, 64.8832, -0.0014, -0.1346, 0.9909
8.2495, -15.7036, 63.6568, -0.0004, -0.2250, 0.9744
6.3634, -24.9764, 60.8828, -0.0014, -0.3683, 0.9297
5.1056, -30.8223, 58.1364, -0.0006, -0.4552, 0.8904
3.2188, -39.1454, 53.1855, -0.0028, -0.5902, 0.8073
1.9629, -44.1351, 49.0895, 0.0071, -0.6251, 0.7805
-1.9631, -43.6109, 49.6532, 0.0174, -0.6166, 0.7871
0.4328, -33.4843, 56.6078, -0.0003, -0.5049, 0.8632
2.3193, -24.8282, 60.9290, 0.0007, -0.3687, 0.9295
4.2056, -15.5492, 63.6851, 0.0015, -0.2179, 0.9760
5.4630, -9.2095, 64.8926, 0.0010, -0.1261, 0.9920
7.3493, 0.4584, 65.3065, 0.0021, 0.0280, 0.9996
8.6068, 6.8989, 64.9204, 0.0011, 0.1198, 0.9928
9.8644, 13.2467, 63.7571, 0.0010, 0.2171, 0.9761
11.7505, 22.5207, 61.0133, 0.0013, 0.3629, 0.9318
13.0078, 28.4647, 58.4879, 0.0009, 0.4504, 0.8928
14.2656, 33.9924, 55.1463, -0.0013, 0.5267, 0.8500
16.1523, 41.8519, 49.5029, 0.0010, 0.6543, 0.7562
16.7814, 44.1387, 47.2160, 0.0047, 0.7064, 0.7078
16.7801, 44.9428, 48.0773, 0.0045, 0.7064, 0.7078
18.0357, 49.4936, 43.3555, 0.0325, 0.7602, 0.6489
21.9644, 49.0292, 43.9482, -0.0931, 0.8121, 0.5760
20.1976, 42.5220, 50.4980, -0.0023, 0.6500, 0.7600
18.9395, 37.2751, 54.4640, -0.0007, 0.5802, 0.8145
17.0531, 28.8336, 59.5426, -0.0036, 0.4324, 0.9017
15.7956, 22.8112, 62.1739, -0.0009, 0.3544, 0.9351
14.2659, 14.9905, 64.5366, -0.0013, 0.2434, 0.9699
12.6520, 6.8974, 66.1178, -0.0010, 0.1183, 0.9930
11.3944, 0.3373, 66.4935, 0.0003, 0.0278, 0.9996
9.5082, -9.5033, 66.0545, -0.0013, -0.1343, 0.9909
8.2507, -15.9566, 64.8075, -0.0004, -0.2248, 0.9744
6.3646, -25.3970, 61.9851, -0.0013, -0.3667, 0.9303
5.1068, -31.3490, 59.1906, -0.0005, -0.4544, 0.8908
3.2201, -39.8229, 54.1518, -0.0025, -0.5886, 0.8084
1.9643, -44.9031, 49.9837, -0.0173, -0.6166, 0.7870
-1.9645, -44.3903, 50.5390, -0.0173, -0.6166, 0.7870
0.4316, -34.0824, 57.6221, -0.0004, -0.5050, 0.8631
2.3181, -25.2716, 62.0242, 0.0007, -0.3678, 0.9299
4.2044, -15.8255, 64.8315, 0.0015, -0.2167, 0.9762
5.4617, -9.3717, 66.0625, 0.0011, -0.1246, 0.9922
7.3481, 0.4706, 66.4854, 0.0021, 0.0291, 0.9996
8.6056, 7.0274, 66.0940, 0.0010, 0.1209, 0.9927
9.8632, 13.4898, 64.9097, 0.0007, 0.2171, 0.9761
11.7493, 22.9321, 62.1195, 0.0013, 0.3644, 0.9312
13.0066, 28.9841, 59.5499, 0.0010, 0.4527, 0.8917
14.8932, 37.3798, 54.3819, 0.0018, 0.5816, 0.8135
16.7801, 44.9428, 48.0773, 0.0045, 0.7064, 0.7078
16.7789, 45.7468, 48.9385, 0.0042, 0.7065, 0.7077
18.0335, 50.3762, 44.1381, -0.0112, 0.7237, 0.6900
21.9606, 49.9062, 44.7381, -0.0106, 0.7263, 0.6873
20.1988, 43.3016, 51.3837, -0.0021, 0.6516, 0.7585
18.9407, 37.9628, 55.4210, -0.0007, 0.5816, 0.8135
17.0543, 29.3789, 60.6029, -0.0035, 0.4328, 0.9015
15.7969, 23.2442, 63.2702, -0.0008, 0.3547, 0.9350
14.2177, 15.0309, 65.7399, -0.0015, 0.2393, 0.9709
12.6532, 7.0494, 67.2871, -0.0009, 0.1194, 0.9928
11.3956, 0.3732, 67.6709, 0.0004, 0.0291, 0.9996
9.5094, -9.6417, 67.2258, -0.0012, -0.1340, 0.9910
8.2519, -16.2096, 65.9583, -0.0003, -0.2245, 0.9745
6.3658, -25.8177, 63.0874, -0.0012, -0.3652, 0.9309
5.1080, -31.8756, 60.2449, -0.0004, -0.4536, 0.8912
3.2213, -40.5004, 55.1182, -0.0022, -0.5869, 0.8096
1.9668, -45.6661, 50.8817, 0.0114, -0.6180, 0.7861
-1.9601, -45.1479, 51.4468, 0.0158, -0.6074, 0.7942
0.4304, -34.6806, 58.6365, -0.0005, -0.5052, 0.8630
2.3169, -25.7150, 63.1194, 0.0007, -0.3669, 0.9302
4.2032, -16.1019, 65.9780, 0.0014, -0.2155, 0.9765
5.4605, -9.5340, 67.2323, 0.0011, -0.1231, 0.9924
7.3469, 0.4828, 67.6643, 0.0021, 0.0301, 0.9995
8.6044, 7.1560, 67.2675, 0.0010, 0.1220, 0.9925
9.8620, 13.7329, 66.0622, 0.0005, 0.2172, 0.9761
11.7481, 23.3434, 63.2256, 0.0013, 0.3660, 0.9306
13.0054, 29.5034, 60.6119, 0.0012, 0.4550, 0.8905
14.8920, 38.0487, 55.3537, 0.0018, 0.5828, 0.8126
16.1498, 43.3774, 51.3079, 0.0011, 0.6574, 0.7536
16.7789, 45.7468, 48.9385, 0.0042, 0.7065, 0.7077
16.7777, 46.5508, 49.7997, 0.0040, 0.7065, 0.7077
18.0223, 51.2283, 44.9598, -0.0125, 0.7228, 0.6910
21.9475, 50.7519, 45.5679, -0.0112, 0.7196, 0.6943
20.2000, 44.0812, 52.2693, -0.0019, 0.6533, 0.7571
18.9419, 38.6505, 56.3781, -0.0006, 0.5830, 0.8125
17.0556, 29.9241, 61.6632, -0.0033, 0.4331, 0.9013
15.7981, 23.6773, 64.3666, -0.0008, 0.3549, 0.9349
14.1695, 15.0712, 66.9432, -0.0017, 0.2352, 0.9719
12.6544, 7.2014, 68.4563, -0.0008, 0.1206, 0.9927
11.3968, 0.4092, 68.8484, 0.0005, 0.0304, 0.9995
9.5106, -9.7801, 68.3971, -0.0012, -0.1338, 0.9910
8.2531, -16.4626, 67.1090, -0.0003, -0.2243, 0.9745
6.3670, -26.2383, 64.1897, -0.0011, -0.3636, 0.9316
5.1092, -32.4023, 61.2991, -0.0004, -0.4528, 0.8916
3.2225, -41.1779, 56.0846, -0.0019, -0.5853, 0.8108
1.9780, -46.3917, 51.8091, 0.0081, -0.6180, 0.7861
-1.9459, -45.8671, 52.3928, 0.0157, -0.6037, 0.7970
0.4292, -35.2787, 59.6508, -0.0006, -0.5053, 0.8629
2.3157, -26.1585, 64.2146, 0.0007, -0.3661, 0.9306
4.2020, -16.3783, 67.1245, 0.0013, -0.2143, 0.9768
5.4593, -9.6962, 68.4022, 0.0011, -0.1215, 0.9926
7.3457, 0.4950, 68.8432, 0.0021, 0.0312, 0.9995
8.6032, 7.2846, 68.4411, 0.0010, 0.1231, 0.9924
9.8608, 13.9761, 67.2148, 0.0002, 0.2172, 0.9761
11.7469, 23.7548, 64.3317, 0.0013, 0.3676, 0.9300
13.0042, 30.0227, 61.6739, 0.0013, 0.4573, 0.8893
14.8908, 38.7177, 56.3254, 0.0019, 0.5841, 0.8117
16.1486, 44.1401, 52.2104, 0.0012, 0.6589, 0.7522
16.7777, 46.5508, 49.7997, 0.0040, 0.7065, 0.7077
16.7764, 47.3548, 50.6609, 0.0038, 0.7066, 0.7076
17.9984, 52.0361, 45.8381, -0.0138, 0.7112, 0.7029
21.9237, 51.5601, 46.4457, -0.0060, 0.7041, 0.7101
20.2011, 44.8608, 53.1550, -0.0017, 0.6549, 0.7557
18.9431, 39.3382, 57.3352, -0.0006, 0.5844, 0.8115
17.0568, 30.4693, 62.7234, -0.0032, 0.4335, 0.9012
15.7993, 24.1104, 65.4630, -0.0007, 0.3552, 0.9348
14.1214, 15.1116, 68.1466, -0.0019, 0.2311, 0.9729
12.6556, 7.3534, 69.6256, -0.0007, 0.1217, 0.9926
11.3980, 0.4451, 70.0259, 0.0006, 0.0317, 0.9995
9.5118, -9.9186, 69.5684, -0.0011, -0.1335, 0.9911
8.2543, -16.7156, 68.2598, -0.0002, -0.2240, 0.9746
6.3682, -26.6590, 65.2919, -0.0010, -0.3620, 0.9322
5.1104, -32.9289, 62.3534, -0.0003, -0.4520, 0.8920
3.2238, -41.8554, 57.0510, -0.0016, -0.5837, 0.8120
2.0020, -47.0601, 52.7814, 0.0102, -0.6121, 0.7907
-1.9214, -46.5336, 53.3681, 0.0078, -0.5733, 0.8193
0.4280, -35.8769, 60.6652, -0.0006, -0.5054, 0.8629
2.3144, -26.6019, 65.3097, 0.0007, -0.3652, 0.9309
4.2008, -16.6547, 68.2710, 0.0012, -0.2131, 0.9770
5.4581, -9.8584, 69.5720, 0.0012, -0.1200, 0.9928
7.3445, 0.5072, 70.0222, 0.0021, 0.0323, 0.9995
8.6019, 7.4131, 69.6146, 0.0010, 0.1242, 0.9923
9.8596, 14.2192, 68.3674, -0.0000, 0.2173, 0.9761
11.7457, 24.1661, 65.4379, 0.0013, 0.3692, 0.9294
13.0030, 30.5420, 62.7360, 0.0014, 0.4596, 0.8881
14.8896, 39.3867, 57.2972, 0.0019, 0.5853, 0.8108
16.1473, 44.9028, 53.1129, 0.0013, 0.6604, 0.7509
16.7764, 47.3548, 50.6609, 0.0038, 0.7066, 0.7076
16.7752, 48.1589, 51.5222, 0.0035, 0.7066, 0.7076
17.9645, 52.8072, 46.7631, -0.0272, 0.6855, 0.7276
21.8860, 52.3169, 47.3890, -0.0320, 0.6348, 0.7720
20.2023, 45.6404, 54.0406, -0.0014, 0.6566, 0.7543
18.9443, 40.0259, 58.2922, -0.0005, 0.5858, 0.8105
17.0580, 31.0145, 63.7837, -0.0031, 0.4338, 0.9010
15.8005, 24.5434, 66.5593, -0.0007, 0.3555, 0.9347
13.9142, 14.4243, 69.5269, -0.0028, 0.2117, 0.9773
12.6568, 7.5054, 70.7949, -0.0007, 0.1228, 0.9924
11.3992, 0.4810, 71.2034, 0.0007, 0.0331, 0.9995
9.5130, -10.0570, 70.7397, -0.0011, -0.1332, 0.9911
8.2555, -16.9686, 69.4106, -0.0002, -0.2238, 0.9746
6.3694, -27.0796, 66.3942, -0.0009, -0.3605, 0.9328
5.1117, -33.4556, 63.4076, -0.0002, -0.4512, 0.8924
3.2250, -42.5329, 58.0174, -0.0013, -0.5820, 0.8132
2.0354, -47.6841, 53.7883, 0.0180, -0.5908, 0.8066
-1.8887, -47.0743, 54.2742, -0.0143, -0.6191, 0.7852
-0.2022, -39.4839, 59.8606, 0.0020, -0.5336, 0.8457
1.0557, -33.4210, 63.4232, 0.0012, -0.4565, 0.8897
2.3132, -27.0453, 66.4049, 0.0007, -0.3643, 0.9313
4.1996, -16.9311, 69.4174, 0.0011, -0.2118, 0.9773
5.4569, -10.0206, 70.7419, 0.0012, -0.1185, 0.9930
7.3433, 0.5194, 71.2011, 0.0021, 0.0333, 0.9994
8.6007, 7.5417, 70.7882, 0.0010, 0.1253, 0.9921
9.8583, 14.4623, 69.5200, -0.0003, 0.2173, 0.9761
11.7445, 24.5775, 66.5440, 0.0013, 0.3708, 0.9287
13.0018, 31.0613, 63.7980, 0.0015, 0.4618, 0.8870
14.8883, 40.0557, 58.2689, 0.0020, 0.5866, 0.8099
16.1461, 45.6656, 54.0154, 0.0014, 0.6619, 0.7496
16.7752, 48.1589, 51.5222, 0.0035, 0.7066, 0.7076
16.7740, 48.9629, 52.3834, 0.0033, 0.7067, 0.7076
17.9163, 53.5231, 47.7588, -0.0255, 0.6800, 0.7328
21.8355, 53.0238, 48.3960, -0.0534, 0.5685, 0.8209
20.2035, 46.4200, 54.9262, -0.0012, 0.6582, 0.7528
18.9455, 40.7136, 59.2493, -0.0005, 0.5872, 0.8095
17.0592, 31.5597, 64.8439, -0.0030, 0.4341, 0.9008
15.8017, 24.9765, 67.6557, -0.0006, 0.3557, 0.9346
13.9154, 14.6907, 70.6752, -0.0028, 0.2123, 0.9772
12.6580, 7.6574, 71.9641, -0.0006, 0.1240, 0.9923
11.4004, 0.5170, 72.3809, 0.0008, 0.0344, 0.9994
9.5142, -10.1954, 71.9110, -0.0010, -0.1329, 0.9911
8.2567, -17.2216, 70.5613, -0.0002, -0.2235, 0.9747
6.3706, -27.5003, 67.4965, -0.0008, -0.3589, 0.9334
5.1129, -33.9822, 64.4619, -0.0002, -0.4504, 0.8928
3.2262, -43.2104, 58.9838, -0.0011, -0.5804, 0.8143
2.0824, -48.2411, 54.8478, 0.0165, -0.5912, 0.8064
-1.8402, -47.6199, 55.3345, -0.0318, -0.6388, 0.7687
-0.8323, -43.1110, 58.8670, 0.0003, -0.5814, 0.8136
0.4256, -37.0732, 62.6939, -0.0008, -0.5057, 0.8627
2.3120, -27.4888, 67.5001, 0.0007, -0.3634, 0.9317
4.1984, -17.2075, 70.5639, 0.0010, -0.2106, 0.9776
5.4557, -10.1829, 71.9117, 0.0012, -0.1170, 0.9931
7.3421, 0.5317, 72.3800, 0.0021, 0.0344, 0.9994
8.5995, 7.6703, 71.9618, 0.0010, 0.1264, 0.9920
9.8571, 14.7054, 70.6725, -0.0006, 0.2174, 0.9761
11.7433, 24.9888, 67.6502, 0.0012, 0.3723, 0.9281
13.0006, 31.5807, 64.8600, 0.0016, 0.4641, 0.8858
14.8871, 40.7246, 59.2407, 0.0020, 0.5878, 0.8090
16.1449, 46.4283, 54.9180, 0.0015, 0.6634, 0.7482
16.7740, 48.9629, 52.3834, 0.0033, 0.7067, 0.7076
16.7728, 49.7669, 53.2446, 0.0030, 0.7067, 0.7075
17.8581, 54.1989, 48.8054, -0.0307, 0.6562, 0.7540
21.7739, 53.6856, 49.4606, -0.0533, 0.5592, 0.8273
20.2047, 47.1997, 55.8119, -0.0010, 0.6598, 0.7514
18.9467, 41.4013, 60.2064, -0.0005, 0.5885, 0.8085
17.0605, 32.1049, 65.9042, -0.0028, 0.4345, 0.9007
15.8029, 25.4096, 68.7521, -0.0006, 0.3560, 0.9345
13.9166, 14.9572, 71.8235, -0.0028, 0.2130, 0.9770
12.6592, 7.8094, 73.1334, -0.0005, 0.1251, 0.9921
11.4016, 0.5529, 73.5584, 0.0010, 0.0357, 0.9994
9.5155, -10.3338, 73.0823, -0.0010, -0.1326, 0.9912
8.2579, -17.4746, 71.7121, -0.0001, -0.2233, 0.9748
6.3718, -27.9209, 68.5988, -0.0007, -0.3574, 0.9340
5.1141, -34.5089, 65.5161, -0.0001, -0.4496, 0.8932
3.2274, -43.8879, 59.9502, -0.0039, -0.5862, 0.8102
2.1382, -48.7531, 55.9426, 0.0181, -0.5762, 0.8171
-1.7826, -48.1223, 56.4367, 0.0284, -0.5104, 0.8595
-0.8335, -43.8067, 59.8178, -0.0084, -0.6191, 0.7852
0.4245, -37.6714, 63.7082, -0.0009, -0.5058, 0.8626
2.3108, -27.9322, 68.5953, 0.0008, -0.3625, 0.9320
4.1971, -17.4839, 71.7104, 0.0010, -0.2094, 0.9778
5.4545, -10.3451, 73.0816, 0.0013, -0.1154, 0.9933
7.3409, 0.5439, 73.5590, 0.0020, 0.0354, 0.9994
8.5983, 7.7988, 73.1353, 0.0010, 0.1275, 0.9918
9.8559, 14.9485, 71.8251, -0.0008, 0.2174, 0.9761
11.7420, 25.4002, 68.7563, 0.0012, 0.3739, 0.9275
12.9994, 32.1000, 65.9220, 0.0018, 0.4664, 0.8846
14.8859, 41.3936, 60.2124, 0.0020, 0.5891, 0.8081
16.1436, 47.1911, 55.8205, 0.0015, 0.6650, 0.7469
16.7728, 49.7669, 53.2446, 0.0030, 0.7067, 0.7075
16.7835, 50.6108, 54.0660, 0.0034, 0.7092, 0.7050
17.7846, 54.8109, 49.9336, -0.0519, 0.6028, 0.7962
21.6993, 54.2931, 50.5945, -0.0895, 0.5243, 0.8468
20.2059, 47.9793, 56.6975, -0.0007, 0.6622, 0.7494
18.9479, 42.0890, 61.1635, -0.0004, 0.5899, 0.8074
17.0617, 32.6501, 66.9645, -0.0027, 0.4348, 0.9005
15.8041, 25.8426, 69.8484, -0.0005, 0.3562, 0.9344
13.9178, 15.2237, 72.9718, -0.0028, 0.2137, 0.9769
12.6604, 7.9614, 74.3027, -0.0004, 0.1262, 0.9920
11.4028, 0.5888, 74.7359, 0.0011, 0.0370, 0.9993
9.5167, -10.4723, 74.2536, -0.0009, -0.1324, 0.9912
8.2591, -17.7276, 72.8629, -0.0001, -0.2230, 0.9748
6.3730, -28.3416, 69.7011, -0.0006, -0.3558, 0.9346
5.1153, -35.0355, 66.5704, -0.0001, -0.4488, 0.8936
3.2322, -44.5513, 60.9251, -0.0007, -0.5773, 0.8165
2.2082, -49.1894, 57.0966, 0.0397, -0.5191, 0.8538
-1.7114, -48.5517, 57.5962, 0.0358, -0.4527, 0.8909
-0.8347, -44.5023, 60.7687, -0.0013, -0.5874, 0.8093
0.4233, -38.2695, 64.7226, -0.0012, -0.5069, 0.8620
2.3096, -28.3756, 69.6905, 0.0008, -0.3616, 0.9323
4.1959, -17.7602, 72.8569, 0.0009, -0.2082, 0.9781
5.4533, -10.5073, 74.2514, 0.0013, -0.1139, 0.9935
7.3397, 0.5561, 74.7379, 0.0020, 0.0365, 0.9993
8.5971, 7.9274, 74.3089, 0.0009, 0.1286, 0.9917
9.8547, 15.1916, 72.9777, -0.0011, 0.2175, 0.9761
11.7408, 25.8115, 69.8624, 0.0012, 0.3755, 0.9268
12.9982, 32.6193, 66.9840, 0.0019, 0.4686, 0.8834
14.8847, 42.0626, 61.1842, 0.0021, 0.5903, 0.8072
16.1424, 47.9538, 56.7230, 0.0016, 0.6666, 0.7454
16.7835, 50.6108, 54.0660, 0.0034, 0.7092, 0.7050
16.7885, 51.4582, 54.8838, 0.0003, 0.6996, 0.7145
17.7010, 55.3787, 51.1182, -0.0308, 0.6406, 0.7673
21.6266, 54.7567, 51.6009, -0.0406, 0.5504, 0.8339
20.2082, 48.7653, 57.5768, -0.0014, 0.6560, 0.7547
18.9485, 42.7746, 62.1222, -0.0006, 0.5883, 0.8086
17.0624, 33.1886, 68.0158, -0.0025, 0.4370, 0.8995
15.8049, 26.2741, 70.9455, -0.0005, 0.3574, 0.9339
13.9450, 15.6703, 74.0793, -0.0030, 0.2147, 0.9767
12.6612, 8.1117, 75.4722, -0.0001, 0.1276, 0.9918
11.3762, 0.4299, 75.9252, 0.0009, 0.0352, 0.9994
9.5174, -10.6125, 75.4248, -0.0008, -0.1307, 0.9914
8.2599, -17.9822, 74.0133, -0.0001, -0.2221, 0.9750
6.3737, -28.7640, 70.8028, -0.0007, -0.3593, 0.9332
4.4962, -38.7672, 65.7977, -0.0031, -0.5069, 0.8620
3.2292, -45.2458, 61.8812, 0.0026, -0.5689, 0.8224
2.2869, -49.5770, 58.2888, 0.0202, -0.5589, 0.8290
-1.6303, -48.9265, 58.7984, 0.0357, -0.4793, 0.8769
0.4225, -38.8666, 65.7376, -0.0009, -0.5054, 0.8629
2.3089, -28.8173, 70.7862, 0.0010, -0.3629, 0.9318
4.1952, -18.0350, 74.0036, 0.0009, -0.2093, 0.9778
5.4526, -10.6677, 75.4214, 0.0011, -0.1178, 0.9930
7.3190, 0.4297, 75.9252, 0.0018, 0.0337, 0.9994
8.5964, 8.0577, 75.4821, 0.0007, 0.1263, 0.9920
9.8539, 15.4363, 74.1300, -0.0011, 0.2161, 0.9764
11.7401, 26.2244, 70.9679, 0.0012, 0.3738, 0.9275
12.9975, 33.1403, 68.0450, 0.0018, 0.4657, 0.8849
14.8676, 42.6421, 62.2260, 0.0018, 0.5868, 0.8097
16.1381, 48.7005, 57.6415, 0.0016, 0.6659, 0.7460
16.7885, 51.4582, 54.8838, 0.0003, 0.6996, 0.7145
16.7858, 52.2552, 55.7522, 0.0028, 0.7083, 0.7059
17.6092, 55.8413, 52.2964, -0.0848, 0.4960, 0.8642
21.5325, 55.2118, 52.7955, -0.0268, 0.6133, 0.7894
20.2106, 49.5519, 58.4554, -0.0046, 0.6473, 0.7622
18.9490, 43.4597, 63.0813, -0.0008, 0.5860, 0.8103
17.0631, 33.7266, 69.0665, -0.0022, 0.4394, 0.8983
15.8055, 26.7053, 72.0427, -0.0004, 0.3588, 0.9334
13.9794, 16.1671, 75.1753, -0.0025, 0.2177, 0.9760
12.6618, 8.2617, 76.6419, 0.0002, 0.1290, 0.9916
11.3421, 0.2187, 77.1176, 0.0006, 0.0324, 0.9995
9.5181, -10.7529, 76.5959, -0.0007, -0.1289, 0.9917
8.2605, -18.2372, 75.1637, -0.0001, -0.2210, 0.9753
6.3744, -29.1866, 71.9045, -0.0008, -0.3634, 0.9316
4.5089, -39.2749, 66.8667, -0.0033, -0.5117, 0.8591
3.2297, -45.9264, 62.8458, 0.0024, -0.5655, 0.8248
2.3789, -49.8890, 59.5402, 0.0605, -0.4526, 0.8897
-1.5351, -49.2197, 60.0646, 0.0260, -0.5083, 0.8608
0.4218, -39.4632, 66.7529, -0.0007, -0.5046, 0.8634
2.3082, -29.2588, 71.8820, 0.0013, -0.3646, 0.9312
4.1945, -18.3094, 75.1505, 0.0010, -0.2111, 0.9775
5.4519, -10.8279, 76.5914, 0.0008, -0.1225, 0.9925
7.2932, 0.2665, 77.1147, 0.0016, 0.0298, 0.9996
8.5957, 8.1883, 76.6553, 0.0004, 0.1235, 0.9923
9.8533, 15.6814, 75.2822, -0.0012, 0.2144, 0.9768
11.7394, 26.6377, 72.0732, 0.0012, 0.3715, 0.9284
12.9968, 33.6613, 69.1060, 0.0016, 0.4623, 0.8867
14.8472, 43.2026, 63.2828, 0.0016, 0.5823, 0.8130
16.1335, 49.4457, 58.5616, -0.0015, 0.6489, 0.7609
16.7858, 52.2552, 55.7522, 0.0028, 0.7083, 0.7059
16.7941, 53.1025, 56.5701, 0.0028, 0.7092, 0.7050
17.5116, 56.2112, 53.4614, -0.0496, 0.6139, 0.7878
21.4263, 55.6117, 54.0609, -0.0181, 0.6465, 0.7627
20.2130, 50.3386, 59.3340, -0.0066, 0.6396, 0.7687
18.9495, 44.1449, 64.0404, -0.0009, 0.5837, 0.8120
17.0638, 34.2646, 70.1172, -0.0019, 0.4418, 0.8971
15.8062, 27.1366, 73.1399, -0.0003, 0.3603, 0.9328
14.0137, 16.6639, 76.2714, -0.0024, 0.2200, 0.9755
12.6625, 8.4117, 77.8115, 0.0006, 0.1304, 0.9915
11.3081, 0.0075, 78.3101, 0.0003, 0.0295, 0.9996
9.5187, -10.8934, 77.7671, -0.0007, -0.1270, 0.9919
8.2612, -18.4922, 76.3141, -0.0001, -0.2198, 0.9756
6.3750, -29.6092, 73.0061, -0.0009, -0.3676, 0.9300
5.0225, -37.2284, 69.4573, -0.0013, -0.4675, 0.8840
3.2302, -46.6069, 63.8103, 0.0039, -0.5594, 0.8289
2.4851, -50.1181, 60.8565, 0.0253, -0.5372, 0.8431
-1.4281, -49.4437, 61.3850, 0.0162, -0.5474, 0.8367
-0.2698, -43.7507, 65.5969, 0.0039, -0.5269, 0.8499
0.9951, -37.0572, 69.5343, 0.0030, -0.4470, 0.8945
2.3075, -29.7002, 72.9778, 0.0016, -0.3663, 0.9305
4.1938, -18.5838, 76.2973, 0.0010, -0.2129, 0.9771
5.4512, -10.9881, 77.7614, 0.0006, -0.1274, 0.9919
7.2674, 0.1033, 78.3043, 0.0013, 0.0258, 0.9997
8.5950, 8.3188, 77.8285, 0.0001, 0.1206, 0.9927
9.8526, 15.9265, 76.4344, -0.0012, 0.2125, 0.9772
11.7388, 27.0509, 73.1785, 0.0012, 0.3691, 0.9294
12.9962, 34.1824, 70.1669, 0.0015, 0.4587, 0.8886
14.8267, 43.7630, 64.3396, 0.0013, 0.5777, 0.8163
16.1288, 50.1909, 59.4817, -0.0032, 0.6395, 0.7688
16.7941, 53.1025, 56.5701, 0.0028, 0.7092, 0.7050
16.8024, 53.9499, 57.3880, 0.0057, 0.7074, 0.7068
17.3937, 56.5480, 54.7898, -0.0206, 0.6496, 0.7600
21.3076, 55.9441, 55.3938, -0.0093, 0.6633, 0.7483
20.2155, 51.1252, 60.2126, -0.0087, 0.6318, 0.7751
18.9500, 44.8300, 64.9995, -0.0011, 0.5813, 0.8137
17.0644, 34.8027, 71.1679, -0.0016, 0.4444, 0.8958
15.8069, 27.5678, 74.2371, -0.0002, 0.3619, 0.9322
14.0481, 17.1607, 77.3675, -0.0023, 0.2223, 0.9750
12.6632, 8.5617, 78.9812, 0.0010, 0.1319, 0.9913
11.2740, -0.2036, 79.5025, 0.0001, 0.0265, 0.9996
9.5194, -11.0338, 78.9383, -0.0006, -0.1250, 0.9922
8.2619, -18.7472, 77.4645, -0.0001, -0.2185, 0.9758
6.3757, -30.0318, 74.1078, -0.0010, -0.3719, 0.9283
4.9895, -37.9725, 70.4137, -0.0017, -0.4742, 0.8804
3.2306, -47.2875, 64.7748, -0.0052, -0.6844, 0.7291
2.6039, -50.2707, 62.2329, 0.0168, -0.5606, 0.8279
-1.3082, -49.5898, 62.7663, 0.0106, -0.5559, 0.8312
-0.2929, -44.5357, 66.5199, 0.0292, -0.4997, 0.8657
0.9750, -37.7283, 70.5236, 0.0036, -0.4436, 0.8962
2.3068, -30.1417, 74.0736, -0.0004, -0.3611, 0.9325
4.1931, -18.8582, 77.4442, 0.0011, -0.2148, 0.9766
5.4506, -11.1483, 78.9313, 0.0003, -0.1325, 0.9912
7.2417, -0.0599, 79.4938, 0.0010, 0.0217, 0.9998
8.5944, 8.4494, 79.0017, -0.0002, 0.1177, 0.9931
9.8519, 16.1716, 77.5866, -0.0012, 0.2107, 0.9776
11.7381, 27.4641, 74.2838, 0.0012, 0.3666, 0.9304
12.9955, 34.7035, 71.2279, 0.0014, 0.4550, 0.8905
14.8063, 44.3234, 65.3964, 0.0010, 0.5731, 0.8195
16.1242, 50.9361, 60.4018, -0.0048, 0.6299, 0.7766
16.8024, 53.9499, 57.3880, 0.0057, 0.7074, 0.7068
16.8107, 54.7972, 58.2059, -0.0038, 0.6845, 0.7290
17.2605, 56.8012, 56.2019, -0.0138, 0.6690, 0.7432
21.1717, 56.1824, 56.8207, -0.0204, 0.5931, 0.8049
20.2179, 51.9118, 61.0913, 0.0023, 0.6884, 0.7253
18.9505, 45.5151, 65.9586, -0.0013, 0.5789, 0.8154
17.0651, 35.3407, 72.2186, -0.0013, 0.4471, 0.8945
15.8075, 27.9990, 75.3343, -0.0002, 0.3634, 0.9316
14.0824, 17.6575, 78.4636, -0.0022, 0.2247, 0.9744
12.6638, 8.7117, 80.1508, 0.0014, 0.1335, 0.9911
11.2400, -0.4148, 80.6949, -0.0002, 0.0234, 0.9997
9.5201, -11.1743, 80.1094, -0.0005, -0.1229, 0.9924
8.2625, -19.0022, 78.6149, -0.0000, -0.2173, 0.9761
6.3764, -30.4544, 75.2095, -0.0010, -0.3762, 0.9265
4.9564, -38.7165, 71.3701, -0.0021, -0.4808, 0.8768
3.2311, -47.9681, 65.7393, 0.0190, -0.5549, 0.8317
2.7387, -50.3267, 63.6849, 0.0072, -0.5938, 0.8046
-1.1705, -49.6280, 64.2322, 0.0212, -0.4892, 0.8719
-0.3160, -45.3208, 67.4430, 0.0191, -0.4973, 0.8674
0.9549, -38.3993, 71.5129, 0.0043, -0.4401, 0.8980
2.3062, -30.5832, 75.1694, -0.0008, -0.3610, 0.9326
4.1925, -19.1325, 78.5910, 0.0012, -0.2168, 0.9762
5.4499, -11.3085, 80.1013, -0.0000, -0.1378, 0.9905
7.2159, -0.2231, 80.6834, 0.0007, 0.0175, 0.9998
8.5937, 8.5800, 80.1749, -0.0005, 0.1146, 0.9934
9.8513, 16.4167, 78.7388, -0.0012, 0.2087, 0.9780
11.7374, 27.8773, 75.3891, 0.0012, 0.3640, 0.9314
12.9949, 35.2246, 72.2888, 0.0012, 0.4512, 0.8924
14.7858, 44.8839, 66.4531, 0.0007, 0.5685, 0.8227
16.1196, 51.6813, 61.3218, 0.0073, 0.6896, 0.7241
16.8107, 54.7972, 58.2059, -0.0038, 0.6845, 0.7290
16.8190, 55.6446, 59.0238, -0.0358, 0.6257, 0.7793
17.1103, 56.9609, 57.7075, -0.0172, 0.6529, 0.7572
21.0190, 56.3283, 58.3401, -0.0107, 0.6537, 0.7567
20.2203, 52.6985, 61.9699, -0.0152, 0.6230, 0.7820
18.9509, 46.2002, 66.9177, -0.0015, 0.5764, 0.8171
17.0658, 35.8787, 73.2694, -0.0010, 0.4498, 0.8931
15.8082, 28.4302, 76.4315, -0.0001, 0.3651, 0.9310
14.4591, 20.1104, 79.0712, -0.0005, 0.2653, 0.9642
12.4964, 7.6734, 81.3922, -0.0026, 0.0952, 0.9955
11.2059, -0.6260, 81.8874, -0.0005, 0.0203, 0.9998
9.5207, -11.3148, 81.2806, -0.0004, -0.1208, 0.9927
7.6344, -23.1590, 78.7162, -0.0024, -0.2788, 0.9603
6.3770, -30.8770, 76.3112, -0.0011, -0.3806, 0.9247
4.9234, -39.4606, 72.3265, -0.0025, -0.4875, 0.8731
3.2316, -48.6487, 66.7039, 0.0233, -0.5499, 0.8349
2.8913, -50.2740, 65.2220, 0.0222, -0.5742, 0.8184
-1.0151, -49.5580, 65.7829, 0.0074, -0.5616, 0.8274
-0.3390, -46.1058, 68.3660, 0.0229, -0.4894, 0.8718
0.9348, -39.0704, 72.5021, -0.0061, -0.4994, 0.8663
2.3055, -31.0247, 76.2651, 0.0025, -0.3678, 0.9299
4.1918, -19.4069, 79.7378, 0.0012, -0.2189, 0.9758
5.4492, -11.4687, 81.2713, -0.0003, -0.1433, 0.9897
7.1901, -0.3863, 81.8729, 0.0004, 0.0132, 0.9999
8.5930, 8.7105, 81.3481, -0.0009, 0.1114, 0.9938
9.8506, 16.6618, 79.8910, -0.0012, 0.2067, 0.9784
11.7368, 28.2905, 76.4944, 0.0012, 0.3613, 0.9325
12.9942, 35.7456, 73.3498, 0.0010, 0.4472, 0.8944
14.7654, 45.4443, 67.5099, 0.0005, 0.5638, 0.8259
16.1150, 52.4264, 62.2419, 0.0040, 0.6808, 0.7324
16.8190, 55.6446, 59.0238, -0.0358, 0.6257, 0.7793
16.8273, 56.4919, 59.8417, -0.0138, 0.6578, 0.7531
16.9393, 57.0053, 59.3283, -0.0126, 0.6655, 0.7463
20.8440, 56.3504, 59.9832, -0.0041, 0.6727, 0.7399
20.2227, 53.4851, 62.8485, -0.0178, 0.6161, 0.7875
18.9514, 46.8853, 67.8768, -0.0017, 0.5739, 0.8189
17.0665, 36.4167, 74.3201, -0.0007, 0.4526, 0.8917
15.8089, 28.8614, 77.5287, -0.0000, 0.3668, 0.9303
14.4439, 20.3240, 80.2380, -0.0005, 0.2627, 0.9649
12.6652, 9.0117, 82.4901, 0.0000, 0.1249, 0.9922
10.8821, -2.5437, 83.0629, -0.0031, -0.0246, 0.9997
9.5214, -11.4552, 82.4518, -0.0003, -0.1186, 0.9929
8.2639, -19.5121, 80.9157, -0.0000, -0.2146, 0.9767
6.3777, -31.2996, 77.4128, 0.0012, -0.3495, 0.9370
4.8904, -40.2047, 73.2829, -0.0199, -0.5694, 0.8218
3.0657, -50.0872, 66.8642, 0.0351, -0.5909, 0.8060
-0.8355, -49.3399, 67.4497, 0.0092, -0.5395, 0.8420
0.9146, -39.7414, 73.4914, -0.0074, -0.5071, 0.8619
2.3048, -31.4662, 77.3609, 0.0028, -0.3691, 0.9294
3.5624, -23.6336, 79.8017, -0.0008, -0.2804, 0.9599
5.4486, -11.6288, 82.4413, -0.0006, -0.1489, 0.9888
7.1643, -0.5495, 83.0624, 0.0001, 0.0087, 1.0000
8.5923, 8.8411, 82.5213, 0.0019, 0.1267, 0.9919
10.4354, 20.5937, 80.1539, 0.0002, 0.2595, 0.9657
11.7361, 28.7037, 77.5997, 0.0012, 0.3584, 0.9336
12.9935, 36.2667, 74.4108, 0.0009, 0.4430, 0.8965
14.7449, 46.0047, 68.5667, 0.0002, 0.5591, 0.8291
16.1103, 53.1716, 63.1620, -0.0098, 0.6008, 0.7994
16.8273, 56.4919, 59.8417, -0.0138, 0.6578, 0.7531
16.7391, 56.8887, 61.1101, -0.0297, 0.6290, 0.7768
16.1057, 53.9168, 64.0821, -0.0114, 0.5909, 0.8067
14.7245, 46.5652, 69.6235, -0.0001, 0.5544, 0.8322
12.9929, 36.7878, 75.4717, 0.0007, 0.4387, 0.8986
11.7354, 29.1169, 78.7050, 0.0012, 0.3555, 0.9347
10.4284, 20.8525, 81.3067, 0.0001, 0.2562, 0.9666
8.5917, 8.9717, 83.6945, 0.0020, 0.1263, 0.9920
7.1385, -0.7127, 84.2520, -0.0002, 0.0041, 1.0000
5.4479, -11.7890, 83.6113, -0.0009, -0.1549, 0.9879
3.9466, -21.3421, 81.6545, 0.0000, -0.2527, 0.9676
2.3041, -31.9076, 78.4567, 0.0032, -0.3704, 0.9289
0.8945, -40.4125, 74.4806, -0.0087, -0.5148, 0.8573
-0.6245, -48.9296, 69.2670, 0.0163, -0.5398, 0.8417
3.2952, -49.6513, 68.8497, 0.0245, -0.5323, 0.8462
4.8574, -40.9487, 74.2393, -0.0229, -0.5868, 0.8094
6.3783, -31.7222, 78.5145, 0.0016, -0.3483, 0.9374
8.2645, -19.7671, 82.0661, -0.0000, -0.2131, 0.9770
9.5221, -11.5957, 83.6229, -0.0002, -0.1162, 0.9932
10.8980, -2.4605, 84.2583, -0.0031, -0.0214, 0.9998
12.6658, 9.1617, 83.6597, 0.0001, 0.1246, 0.9922
14.4288, 20.5377, 81.4048, -0.0006, 0.2599, 0.9656
15.8096, 29.2926, 78.6259, 0.0001, 0.3686, 0.9296
17.0671, 36.9547, 75.3708, -0.0003, 0.4556, 0.8902
18.5062, 45.2302, 70.4945, -0.0121, 0.5040, 0.8636
20.2251, 54.2717, 63.7271, 0.0031, 0.6857, 0.7279
20.6392, 56.2091, 61.7897, -0.0037, 0.6578, 0.7532
16.7391, 56.8887, 61.1101, -0.0297, 0.6290, 0.7768
16.5026, 56.5742, 63.0899, 0.0030, 0.6875, 0.7261
20.3964, 55.8600, 63.8042, -0.0021, 0.6731, 0.7396
18.5303, 46.0171, 71.4111, -0.0134, 0.5006, 0.8655
17.0678, 37.4927, 76.4215, 0.0000, 0.4587, 0.8886
15.8102, 29.7238, 79.7232, 0.0002, 0.3704, 0.9289
14.4136, 20.7513, 82.5716, -0.0007, 0.2571, 0.9664
12.6665, 9.3117, 84.8293, 0.0002, 0.1243, 0.9922
10.9140, -2.3773, 85.4537, -0.0030, -0.0180, 0.9998
9.5227, -11.7361, 84.7941, -0.0000, -0.1138, 0.9935
8.2652, -20.0221, 83.2165, -0.0000, -0.2117, 0.9773
6.3790, -32.1448, 79.6162, 0.0019, -0.3471, 0.9378
4.8244, -41.6928, 75.1957, -0.0259, -0.6040, 0.7966
3.5055, -49.1212, 70.5461, 0.0114, -0.4932, 0.8698
-0.3801, -48.2857, 71.2116, 0.0331, -0.4600, 0.8873
0.8744, -41.0835, 75.4699, -0.0101, -0.5226, 0.8525
2.3035, -32.3491, 79.5525, 0.0036, -0.3718, 0.9283
3.9956, -21.3344, 82.8780, 0.0003, -0.2495, 0.9684
5.4472, -11.9492, 84.7812, -0.0013, -0.1610, 0.9869
7.1127, -0.8759, 85.4415, -0.0005, -0.0006, 1.0000
8.5910, 9.1023, 84.8677, 0.0022, 0.1259, 0.9920
10.4214, 21.1113, 82.4594, -0.0000, 0.2528, 0.9675
11.7348, 29.5301, 79.8103, 0.0011, 0.3524, 0.9358
12.9922, 37.3088, 76.5327, 0.0005, 0.4342, 0.9008
14.7040, 47.1256, 70.6803, -0.0004, 0.5497, 0.8354
16.5026, 56.5742, 63.0899, 0.0030, 0.6875, 0.7261
16.2053, 55.9330, 65.3964, 0.0021, 0.6908, 0.7230
20.1279, 55.2560, 65.8680, -0.0310, 0.5521, 0.8332
18.5544, 46.8039, 72.3277, -0.0146, 0.4973, 0.8675
17.0685, 38.0307, 77.4722, 0.0004, 0.4619, 0.8870
15.8109, 30.1550, 80.8204, 0.0002, 0.3724, 0.9281
14.3984, 20.9649, 83.7383, -0.0008, 0.2542, 0.9671
12.6672, 9.4617, 85.9990, 0.0003, 0.1240, 0.9923
10.9299, -2.2942, 86.6490, -0.0030, -0.0146, 0.9999
9.5234, -11.8766, 85.9653, 0.0001, -0.1113, 0.9938
8.2659, -20.2771, 84.3669, -0.0000, -0.2101, 0.9777
6.3797, -32.5674, 80.7179, 0.0023, -0.3458, 0.9383
4.7914, -42.4369, 76.1521, -0.0289, -0.6210, 0.7833
3.7549, -48.3312, 72.3996, 0.0130, -0.4975, 0.8674
-0.1522, -47.5381, 72.8790, 0.0146, -0.4723, 0.8813
0.8543, -41.7546, 76.4592, -0.0114, -0.5304, 0.8477
2.3028, -32.7906, 80.6483, 0.0040, -0.3733, 0.9277
